# .PCD v0.7 - Point Cloud Data file format
VERSION 0.7
FIELDS x y z
SIZE 4 4 4
TYPE F F F
COUNT 1 1 1
WIDTH 1325
HEIGHT 1
VIEWPOINT 0 0 0 1 0 0 0
POINTS 1325
DATA ascii
-0.0759096 0.12520951 -0.0074203997
-0.08431717 0.12897734 0.050436467
-0.017400701 0.092676103 0.054347701
-0.072390698 0.151114 -0.0412874
-0.08209753 0.093059666 0.032400634
-0.078241602 0.091377802 0.036602799
-0.075585157 0.083275519 0.037722349
-0.075917304 0.12523 -0.0078119799
-0.080966502 0.13387699 -0.00363658
-0.082051724 0.08471676 0.031581979
-0.076857999 0.1163715 -0.0056609502
-0.075977348 0.13690901 -0.0060547851
-0.081499904 0.1258045 0.050814152
-0.027604543 0.08496844 0.04789941
-0.074809201 0.079093598 0.036382299
-0.090689301 0.11752 0.0439252
-0.079034299 0.088667899 0.036067098
0.035295639 0.075021394 -0.015254405
-0.072203301 0.15253399 -0.0417656
0.030528532 0.074406266 -0.02077215
-0.0287007 0.082818702 0.046159603
-0.076894149 0.12373 -0.0071517499
-0.071906798 0.110755 -0.0096186697
-0.075291701 0.078373954 0.035473499
-0.083429597 0.12505651 -0.0042247502
-0.018250501 0.092020303 0.054512899
-0.091683403 0.116094 0.040743802
-0.07791663 0.097354725 0.035776123
-0.071680099 0.15179801 -0.043372501
-0.083150499 0.085760802 0.030401699
-0.05482294 0.091269463 -0.021786444
-0.072054103 0.0777606 0.037902702
-0.077867098 0.177131 -0.049408399
-0.073389456 0.116444 -0.0072610849
-0.0191918 0.17418399 -0.022799199
-0.0191397 0.092031598 0.0539979
-0.085081048 0.1235882 0.048503347
-0.091578834 0.1247205 0.042116635
-0.019056665 0.05711266 0.048825312
-0.027861603 0.041999027 0.052707151
-0.028876511 0.048635859 0.045837384
-0.01963518 0.062220544 0.049200278
-0.076913401 0.15704194 -0.013084433
-0.071794346 0.087150395 0.041293584
-0.076754399 0.082777567 0.036316864
0.019594301 0.041435 -0.0196763
-0.075076699 0.09841644 0.037741438
-0.022740493 0.076076835 0.0526985
0.037633952 0.082243539 -0.014538544
-0.0249827 0.091847397 0.0485489
-0.065965869 0.088527732 -0.018136239
-0.071581602 0.079120301 0.038819101
-0.0063911499 0.121199 -0.012466
-0.086231127 0.11177777 0.025285058
-0.071149997 0.1554645 -0.0442781
0.050803501 0.070230752 0.024096299
-0.078233995 0.11455228 0.047096115
-0.072856598 0.114991 -0.0071131499
-0.023342388 0.056643073 0.043457199
-0.055806864 0.088829458 -0.021328816
-0.081777304 0.098215312 0.031919401
0.050124802 0.072314501 0.0074597099
-0.058105148 0.041115448 0.01920785
-0.063038699 0.15528999 -0.0125891
-0.057817101 0.086879998 -0.0211007
-0.023368068 0.065068349 0.044833798
-0.020807942 0.068258941 0.050946686
0.046858583 0.07085643 0.022619499
-0.082702249 0.132653 0.050378002
-0.076606736 0.10349871 0.035411619
0.041022941 0.075238571 0.031173073
-0.071716301 0.1806135 -0.0559492
-0.085787758 0.11736076 0.047313735
-0.026857603 0.055124331 0.03826686
-0.065164402 0.11449175 -0.011006899
-0.084676653 0.10348877 0.026130306
-0.069890998 0.119438 -0.0086356001
-0.092623502 0.124077 0.0092690298
-0.087848037 0.10447367 0.01507596
-0.080995321 0.10311862 0.031137677
-0.091952652 0.1161065 0.038757347
-0.066529267 0.15508814 -0.00372048
-0.073684819 0.14858216 -0.025486847
-0.046187807 0.092242025 -0.022096781
-0.075134054 0.15580106 -0.0056660338
0.0048175873 0.10671928 -0.020679733
-0.01267095 0.1213495 -0.01053335
-0.053567663 0.154773 -0.0027097391
-0.038416799 0.120732 -0.0116964
-0.00034650901 0.12560999 -0.0072366302
0.045629334 0.068558663 0.001967414
-0.046214573 0.15425201 -0.0067431997
-0.015939957 0.10597578 -0.022299415
-0.077209644 0.15608528 -0.014678215
-0.03150925 0.112693 -0.017291
-0.089645997 0.092943802 0.0164332
-0.082106397 0.110205 0.0294137
-0.074428834 0.14760983 -0.015703134
-0.0776508 0.152845 -0.00089288398
-0.017229062 0.064846568 0.052509684
-0.016165251 0.1682675 -0.0211449
-0.0076059201 0.125948 -0.00752899
-0.027405394 0.037065987 0.053131539
-0.063203782 0.1678426 -0.060740482
-0.062398508 0.03938948 0.042879567
0.0192583 0.036167212 -0.0080521191
-0.049894653 0.052216999 0.016644351
-0.076831825 0.17303161 -0.046754502
-0.063212097 0.172304 -0.061569899
0.0101258 0.125306 -0.0070385099
-0.064779423 0.1247611 -0.0087464834
-0.075978652 0.13690451 -0.0056890901
-0.044758901 0.1222965 -0.011309825
0.027865199 0.099634402 -0.0174729
-0.021274749 0.1100115 -0.02050795
-0.051871248 0.053828839 0.016301174
-0.0699016 0.16097701 -0.048938598
-0.069893204 0.120907 -0.00884856
-0.019025026 0.072747983 0.054123566
0.00918453 0.096929356 -0.025631148
-0.00753369 0.120069 -0.01324475
-0.0080764834 0.11060599 -0.0212417
-0.085916422 0.12652425 -0.0020652893
-0.0624118 0.168239 -0.061196599
-0.034370676 0.104289 -0.021168349
-0.089067124 0.128116 0.0037730774
-0.072427742 0.16520901 -0.04453307
-0.070910871 0.15650129 -0.045219418
-0.078939706 0.1729015 -0.043992851
0.0034556233 0.10777066 -0.020431601
-0.077879101 0.116346 -0.00545689
-0.072390802 0.121605 -0.008316325
-0.0033611266 0.115921 -0.016846901
-0.025926942 0.12183781 -0.0072966078
-0.052559949 0.0550896 0.025045682
-0.077977255 0.13541299 -0.0054060603
-0.090885989 0.13159949 0.0077347956
-0.0721609 0.14703199 -0.0238695
-0.069568798 0.160974 -0.049947999
-0.069822706 0.15815233 -0.049257502
-0.076734096 0.170791 -0.044021651
-0.068890303 0.115094 -0.0091389045
0.053777602 0.069265097 0.00258827
-0.0035099401 0.110634 -0.0212045
0.031322099 0.089950897 -0.019227801
0.040475599 0.092006199 -0.0093458798
-0.0465413 0.123419 -0.0104793
-0.0747355 0.14857949 -0.018364176
-0.074040003 0.148543 -0.0208687
-0.077134602 0.072920591 0.027529359
-0.073959753 0.13547951 -0.0070635751
-0.072588034 0.093749337 0.041217301
-0.0044963802 0.110771 -0.0213478
-0.073833093 0.148562 -0.022360999
-0.0063248025 0.089633472 -0.036141828
-0.052819077 0.045746628 0.018043758
-0.071376055 0.15538116 -0.04374503
-0.0070903399 0.110861 -0.021442249
-0.068735465 0.15769729 -0.052414097
-0.070036903 0.076569699 0.038369399
0.0444308 0.070736751 0.0010311215
-0.063236646 0.17452201 -0.061361827
0.029115651 0.09895575 -0.016756698
-0.017821901 0.089629598 -0.037351198
-0.055680849 0.035553049 0.04587115
-0.001767755 0.1144365 -0.018267799
-0.054575503 0.15753967 -0.0016907793
-0.070902899 0.110786 -0.0101311
0.0034963668 0.103744 -0.021839032
0.030177101 0.049696498 -0.0112195
-0.084569603 0.12714 0.050267201
-0.069663502 0.159559 -0.049932402
-0.063017398 0.113067 -0.0134471
-0.023911336 0.084896632 0.053465661
-0.063498802 0.173693 -0.061544601
-0.077358723 0.15244953 -0.0050907303
-0.062508672 0.042155311 0.026726566
-0.00327774 0.12506101 -0.0086417301
-0.074182302 0.14924651 -0.02636485
-0.07411319 0.14696938 -0.014619063
-0.06791351 0.17280045 -0.056828827
-0.00053226802 0.111266 -0.019916801
-0.00253303 0.110473 -0.0210263
0.0091368603 0.107291 -0.019925701
-0.071726598 0.143977 -0.0139286
-0.01378175 0.095318392 -0.032550789
-0.01082275 0.12085301 -0.01204375
0.0041057835 0.107837 -0.020451549
-0.084840834 0.080456108 0.0050048372
-0.0136895 0.0952904 -0.0330103
-0.025462069 0.16625699 -0.017364956
-0.076775014 0.15597188 -0.016094869
-0.088028297 0.128084 0.00127828
-0.0085572703 0.119157 -0.0142712
-0.0097659901 0.121876 -0.011136
0.030318299 0.079725102 -0.020595299
0.052666102 0.066093698 -0.000184776
-0.062913999 0.11807 -0.0099036796
-0.033275824 0.117405 -0.01320385
0.0322433 0.089661703 -0.0189276
-0.068673365 0.15955566 -0.053314965
-0.061912648 0.12163649 -0.0089160353
-0.08622627 0.083925754 0.0049858876
0.0116988 0.089326248 -0.03075815
-0.075399213 0.15233028 -0.017466415
-0.017163699 0.095646501 -0.031398602
-0.0044130799 0.12096 -0.0123131
-0.060978949 0.1180915 -0.010683401
-0.075057253 0.1527365 -0.0163991
-0.0043626148 0.1210255 -0.01229255
0.0047000451 0.097964227 -0.025744766
-0.024260901 0.121231 -0.0086156866
-0.075804137 0.15274534 -0.015899135
-0.015761569 0.10724293 -0.021691801
-0.068568103 0.156629 -0.052997202
-0.0085380599 0.120181 -0.0133625
-0.063948698 0.168098 -0.060689501
-0.089525595 0.090230316 0.014949201
-0.061756801 0.113454 -0.0138737
-0.017229199 0.104564 -0.022745
-0.087771945 0.088240705 0.0046108384
-0.071265228 0.15559198 -0.044066634
-0.075024575 0.14827149 -0.015868802
0.055369899 0.0651884 0.00078853202
-0.087938398 0.12670501 0.00026866901
-0.076653801 0.11399 -0.0048141899
-0.089632124 0.09158361 0.01494251
-0.090946198 0.11476 0.033332199
-0.063430168 0.17558499 -0.06134963
-0.042843223 0.097103342 -0.021979799
-0.087399691 0.084733143 0.014976709
-0.047013596 0.12294281 -0.01076586
-0.075137846 0.1499455 -0.024534598
-0.031452999 0.037708286 0.051200304
-0.065644853 0.14797574 -0.024035674
-0.077153265 0.15231617 -0.0053459252
0.028785441 0.096106343 -0.018527219
-0.035685346 0.11539634 -0.015440722
0.036248598 0.087584347 -0.0157318
-0.082140341 0.1136526 -0.0016701177
-0.085950419 0.12773219 -0.0018970175
-0.09032847 0.1336485 0.0077265752
0.034332301 0.094539776 -0.014373274
-0.082766414 0.07595899 0.00540898
-0.087570883 0.13423312 0.0034116015
-0.078075603 0.071234018 0.0033955616
-0.069203801 0.15671299 -0.051942501
-0.091326192 0.1261055 0.0070215315
-0.090966105 0.14484031 0.024139764
-0.052528251 0.14647651 -0.0022770199
-0.075769976 0.1530216 -0.01709744
-0.058594756 0.043969207 0.043470595
-0.0365486 0.12125 -0.0102225
-0.035354476 0.11503494 -0.015610818
0.036366101 0.087300599 -0.016435299
-0.069061801 0.110676 0.040954798
0.00068856298 0.105475 -0.021689801
-0.062357999 0.172308 -0.0618736
0.016911855 0.12364014 -0.0055395965
-0.05387618 0.15834001 -0.002202417
0.01276025 0.1233 -0.00887636
0.0050491723 0.12527651 -0.0079514561
-0.035136115 0.11445326 -0.015783507
0.0355567 0.087831102 -0.0169845
0.0049441867 0.11596427 -0.017505327
0.025362374 0.062330551 -0.023485851
-0.067730099 0.181168 -0.057983
-0.044119399 0.12167267 -0.011999633
-0.05804795 0.15308917 -0.00052935956
0.0198639 0.11968 -0.0089705
0.0110737 0.125093 -0.0068067801
-0.033898801 0.1141806 -0.016034359
0.033089001 0.0892132 -0.0184699
-0.048836801 0.097081199 -0.0221898
-0.062631361 0.1514167 -0.0014013462
-0.036596667 0.11542734 -0.015467301
0.0045265337 0.1033385 -0.0214052
-0.061191302 0.173613 -0.061506201
-0.086496197 0.112872 0.0280752
0.026847601 0.098196104 -0.018953849
-0.0578246 0.1501165 -0.0012882149
0.033899799 0.088804603 -0.017981499
-0.02551285 0.12249441 -0.0061954521
-0.0434452 0.120253 -0.0131867
-0.032637302 0.119597 -0.0104942
0.034732401 0.088226303 -0.0174421
0.0053347182 0.10285717 -0.0215715
0.040887699 0.092806898 -0.00817715
-0.037504096 0.112689 -0.017261833
-0.061423499 0.17221899 -0.061841302
0.029098565 0.093854666 -0.019345799
0.036047231 0.087730028 -0.016211534
-0.035170503 0.1137905 -0.016440099
0.0311435 0.088516198 -0.019600401
0.0056458358 0.11627305 -0.017279826
0.00270214 0.10527 -0.0214784
-0.060832601 0.17151 -0.061090101
0.033889983 0.093802199 -0.015388372
-0.067108944 0.1802915 -0.058839552
-0.0131103 0.12052667 -0.011661734
-0.069784194 0.16332966 -0.049630433
-0.038588673 0.1221735 -0.01071225
-0.045621816 0.10457867 -0.02061455
0.038336702 0.091043197 -0.012345
-0.0699623 0.15530699 -0.0499609
-0.036999151 0.1203955 -0.01133585
-0.083929487 0.15079288 0.005381925
0.039113499 0.090498097 -0.0117677
-0.058275562 0.14387698 -0.0027871802
-0.03606401 0.11737426 -0.0131578
-0.032708135 0.10728732 -0.020250933
-0.039367501 0.120945 -0.0119262
-0.043737411 0.12212219 -0.011537631
0.032836501 0.087693498 -0.0188869
0.0017112449 0.102342 -0.02238895
-0.059859902 0.035888799 0.045495398
-0.033846799 0.0493888 0.039331529
-0.035313718 0.11836199 -0.01280804
0.034484699 0.086840801 -0.017917899
-0.035586901 0.116022 -0.0147547
0.033291999 0.085643299 -0.018750301
0.026894201 0.098815396 -0.0185978
-0.0498739 0.120141 -0.01301
0.004955336 0.11472193 -0.018367646
0.0243112 0.099966697 -0.0198415
-0.0313926 0.112895 -0.017493101
-0.02464343 0.12153018 -0.0082484102
-0.035262253 0.1231271 -0.0074544209
-0.087231196 0.1132 0.043731298
-0.07884755 0.15216829 0.0007309076
-0.062777303 0.15400913 0.0025067846
-0.057250392 0.15812653 0.0024907892
-0.047644001 0.121343 -0.0122933
-0.063071303 0.17386299 -0.061679799
0.0361287 0.085855 -0.0169039
0.027287249 0.098035902 -0.0187748
0.039316401 0.094858103 -0.0083639901
-0.086923301 0.112018 0.023246299
-0.02836906 0.083522439 0.046520259
-0.069288932 0.18101133 -0.057308033
-0.044499651 0.120765 -0.0127133
0.0290638 0.093777537 -0.019271467
-0.035680965 0.11415634 -0.016130334
-0.048762999 0.120209 -0.0131018
0.04049015 0.094077051 -0.0075204647
0.026874501 0.098775297 -0.018557299
0.00087915955 0.1037955 -0.02193195
0.036140375 0.088926256 -0.0161348
-0.035344779 0.12357028 -0.0059294598
-0.064224154 0.17860834 -0.060477111
0.039271701 0.093804903 -0.00924672
-0.034501299 0.115067 -0.01576825
0.0029384401 0.100629 -0.0225769
0.035854898 0.0843357 -0.017290199
0.025552629 0.062729843 -0.023190184
-0.088631272 0.15105972 0.013038571
-0.090354763 0.15021966 0.021119935
0.053097948 0.059217568 -0.0028737502
0.021955494 0.12229202 -0.0032308321
-0.072432712 0.16612026 -0.045036979
0.052469429 0.062894545 -0.0018859874
0.014918438 0.12482413 -0.0048309881
-0.07346338 0.068402469 0.025355874
-0.073520154 0.074264303 0.033460651
0.012791767 0.089152873 -0.0304546
-0.076797239 0.1710774 -0.044213559
-0.087848157 0.15092599 0.02479743
-0.0596296 0.0391629 0.019804899
-0.065382324 0.037630703 0.015200875
-0.070268899 0.036098152 0.0106367
-0.070922501 0.109376 -0.0106672
-0.0111844 0.110115 -0.020641301
-0.076039091 0.14462577 -0.0064568468
-0.070879199 0.115031 -0.0081756897
-0.015165667 0.12749228 0.0014978009
-0.071199797 0.15079001 -0.043462399
0.030272601 0.085728563 -0.020161299
-0.074105099 0.068619303 0.025039
-0.065956928 0.10521263 -0.01520104
-0.072914802 0.110726 -0.0089953998
-0.023770113 0.12537675 0.0012185497
0.030631101 0.076191001 -0.020964701
-0.0718567 0.070151404 0.0311867
-0.0709057 0.10512 -0.0125462
-0.071666524 0.037651431 0.0053738323
-0.0045496062 0.12953688 0.00063637499
0.018926499 0.119915 -0.0092436597
-0.069428898 0.039567001 0.0096857799
-0.015218873 0.12442487 -0.0053186887
-0.064347997 0.061144698 0.021233199
-0.070124097 0.109501 0.0382316
-0.045756362 0.089293592 -0.022109689
-0.055194739 0.089642301 -0.021768063
-0.063423932 0.042573076 0.012892418
-0.066065162 0.044408903 0.0052766204
-0.070532218 0.040841378 0.0041503804
-0.0733338 0.0687721 0.025943849
-0.071907103 0.105086 -0.0120336
-0.06217856 0.11496665 -0.012507179
-0.072466403 0.067896098 0.026013499
0.027829615 0.078799196 -0.022718884
-0.067234702 0.158081 -0.055029999
-0.0831073 0.11729649 -0.0023605251
-0.090609886 0.15018851 0.0156371
-0.064905897 0.116607 -0.0100071
0.050312899 0.051686801 -0.0029982801
-0.082874499 0.119161 -0.0032838299
-0.010796 0.120869 -0.0120713
0.02643439 0.1169386 -0.0063100485
-0.057946786 0.048744146 0.00575099
-0.067142203 0.159475 -0.056177899
0.0051579894 0.097334586 -0.026287746
-0.072385848 0.11505 -0.0084718354
-0.067910098 0.109459 -0.0121777
0.0044198162 0.11505021 -0.017714633
-0.066702142 0.11780375 -0.0091356747
-0.064823523 0.17430225 -0.060436726
-0.070255801 0.152263 -0.0463745
-0.063232198 0.06249807 0.024684973
-0.068010554 0.18075949 -0.05848835
0.001147303 0.10164467 -0.022598667
-0.045664664 0.099036604 -0.021728022
-0.054756667 0.097445585 -0.021364447
0.0051631927 0.12985612 0.00013228429
-0.056857433 0.054537255 0.0049342532
0.020117501 0.0390306 -0.012698567
0.01823792 0.037374295 -0.015516199
-0.073890001 0.10499567 -0.010857667
0.0070415251 0.089334764 -0.032573599
-0.075277083 0.1161533 -0.0071144728
-0.070964597 0.075468197 0.037338499
-0.071638703 0.067525603 0.026503099
-0.064040683 0.10450052 -0.016262811
-0.062495898 0.060792901 0.0219134
-0.05579894 0.10617457 -0.018506356
-0.079825602 0.114817 -0.00349908
0.051453765 0.056834247 -0.0037853098
-0.059955299 0.061087199 0.023956601
-0.073454797 0.075271301 0.035225101
-0.073846303 0.114952 -0.00659368
-0.066515423 0.1126294 -0.01162114
-0.066098198 0.15658601 -0.053472601
-0.071366951 0.072894797 0.034208551
-0.075027265 0.14131799 -0.0063547837
-0.066193417 0.07265152 0.037601281
-0.068883903 0.117973 -0.0085110497
-0.044553753 0.10269523 -0.021172442
-0.052448917 0.10215472 -0.020842502
-0.069658197 0.064265698 0.00056863698
-0.074970677 0.067494556 0.0047125844
-0.067660794 0.074377447 0.038096547
-0.0718707 0.116473 -0.0077641299
-0.061398901 0.119487 -0.0095859254
-0.078245416 0.1208655 0.051476929
-0.069150798 0.152358 -0.047074001
0.026408816 0.044497669 0.036397416
-0.0642749 0.17246899 -0.061079551
0.024168331 0.045150705 -0.015264744
-0.059662051 0.03917985 0.020716101
-0.06389603 0.037623461 0.025353009
-0.066142492 0.037913237 0.035014085
-0.066332556 0.10748256 -0.013871114
0.0081389965 0.10300767 -0.020832701
-0.065995544 0.070913598 0.0361531
-0.064283602 0.175364 -0.061220702
-0.0769867 0.077269003 0.032788098
-0.068060704 0.153823 -0.049890801
-0.0698753 0.117966 -0.0083545502
-0.073880218 0.11646216 -0.0075823502
-0.072784625 0.10348427 -0.012134155
-0.035465654 0.10258426 -0.021606473
-0.065906443 0.1115483 -0.012525729
-0.0052548689 0.074143998 -0.036631994
-0.070027702 0.153659 -0.048978701
0.0031448291 0.10305742 -0.021960286
-0.074848697 0.066455901 0.0065355101
-0.069183201 0.153837 -0.049559601
0.030500874 0.077647477 -0.020891724
-0.064380646 0.061976999 0.02313775
-0.0304508 0.11875 -0.0116176
-0.056248117 0.035633951 0.045971368
-0.0610632 0.035315901 0.044054899
-0.06761045 0.1552515 -0.051832698
0.02146125 0.047280218 -0.021290842
0.014452591 0.045143623 -0.024233026
0.024302274 0.074805476 -0.025313983
0.00459571 0.11230201 -0.019754101
-0.032108601 0.036634799 0.05082785
0.017511133 0.075175755 -0.028877081
0.022749037 0.054451138 -0.02456801
0.02881778 0.054295804 -0.01814699
0.014910876 0.055185385 -0.028213847
-0.055197705 0.046152268 0.024458013
-0.069914803 0.109401 -0.011164
-0.064692102 0.061722599 0.022400299
-0.061380949 0.1025795 -0.018459899
-0.068341799 0.062509097 0.0209713
-0.0609117 0.111106 -0.0154828
-0.073449954 0.069453299 0.027956899
-0.078548655 0.108215 0.034512252
-0.066275798 0.15951499 -0.0565111
-0.067568369 0.11654267 -0.0088774106
-0.069323599 0.14222801 -0.0102995
0.012221925 0.082940698 -0.030929223
-0.055562701 0.035173599 0.0453577
-0.066374861 0.10241961 -0.016155837
0.01220406 0.086462379 -0.030854499
-0.075215749 0.11740699 -0.0070281127
-0.0547546 0.035971999 0.046578899
-0.056116428 0.10605338 -0.018519161
-0.053875715 0.06678199 -0.012281983
-0.062663458 0.068661027 -0.011683945
-0.056303449 0.062549777 -0.0067771804
-0.065418057 0.064974576 -0.0047628558
-0.073863871 0.10215028 -0.012092872
-0.072008051 0.068320528 -0.0024574543
0.012557445 0.075096935 -0.03123869
0.0047387355 0.075426511 -0.034412559
-0.0055536702 0.11177622 -0.020421799
-0.074507654 0.1413385 -0.0066896649
-0.0052813822 0.079124033 -0.03723681
-0.015302356 0.075157881 -0.038564429
-0.044954635 0.10306656 -0.021107011
-0.035369061 0.1042786 -0.021067027
-0.080761574 0.14175732 -0.0019793171
-0.031237343 0.076493092 -0.031771999
-0.025511244 0.07514438 -0.036483675
-0.025082035 0.10457871 -0.022620507
-0.024303524 0.03623857 0.053305227
-0.068867534 0.062195536 0.019365733
-0.077131301 0.075437397 0.0308061
-0.075295515 0.066930272 0.015909996
-0.00039109762 0.035141952 0.01069435
0.0013572661 0.049662899 -0.0303632
-0.075813003 0.068111502 0.0180714
-0.0051468997 0.048927952 -0.030551478
-0.070569903 0.152776 -0.046814799
-0.033344526 0.07510265 -0.025062187
-0.052381899 0.10276625 -0.020623401
-0.0588466 0.061538 0.02555855
-0.045942578 0.10827202 -0.019070018
-0.035008103 0.1090143 -0.019261094
-0.028899724 0.10930625 -0.019228699
-0.00353154 0.037296999 0.012273975
-0.064907387 0.15606414 0.015005171
-0.075072899 0.067581698 0.018682601
-0.065897733 0.064621747 0.027012376
0.032439519 0.083517291 -0.019196121
-0.025003418 0.11529373 -0.015242898
-0.017352061 0.036518682 0.052055936
-0.054264072 0.079735719 -0.020448439
-0.015548805 0.11526549 -0.016399346
0.0063311425 0.034686383 0.021090791
0.0050410265 0.044754233 -0.026020378
-0.061625801 0.064125396 0.029779
0.0049522286 0.12721506 -0.004844245
-0.084575616 0.14460388 0.0046856795
-0.073373929 0.068004943 0.0239585
-0.0048306962 0.038054101 0.016844766
0.0034217378 0.11087317 -0.020212883
-0.0040594903 0.038414016 0.021088716
-0.037553977 0.074842699 -0.018486358
-0.0728736 0.065978102 0.0205309
-0.054421794 0.064876109 0.034062251
-0.04714299 0.06310109 0.037626293
-0.044820923 0.11498008 -0.01586899
0.016323272 0.03494997 0.030587072
-0.023922406 0.12386952 -0.003029977
-0.074926652 0.075071685 0.033330034
-0.054122999 0.064195998 0.0330627
-0.0496681 0.070550703 0.0391462
0.0048906985 0.03684241 0.024778862
0.014718933 0.035105899 0.031927034
0.0274856 0.040024798 0.030157199
-0.055365924 0.074733265 -0.017705997
-0.067650102 0.066715904 0.029786199
-0.064677998 0.066920787 0.03223284
-0.056537401 0.063862093 0.031679001
-0.049752198 0.071618102 0.0399477
0.027107 0.0406036 0.031367399
0.014144382 0.035286427 0.033454355
0.00937487 0.037764799 0.030258801
-0.070531003 0.151779 -0.0453729
0.014564746 0.034527589 -0.0051075509
-0.065102763 0.075217359 -0.015800606
-0.063340604 0.066516899 0.032613151
-0.055348951 0.063529372 0.031623375
-0.0050542457 0.038663372 0.02559855
0.0084434683 0.03823315 0.031456899
0.01483762 0.034985542 0.035670977
0.042999893 0.084449328 -0.0049969642
0.0051445197 0.037197419 -0.0052030105
0.01245969 0.066745229 -0.030767519
-0.045117036 0.075223751 -0.018039087
-0.072711192 0.066363648 0.021489557
-0.076287605 0.10688311 -0.0081836488
-0.062221996 0.066939577 0.033892177
-0.0549278 0.067663454 0.036924452
-0.0076690754 0.038806081 0.02944606
0.0040763277 0.039001737 0.028791644
0.014642366 0.034922268 0.037490144
0.0057861651 0.038313918 0.032643858
0.0044663227 0.034761269 0.0044806241
0.0047901697 0.065417722 -0.032746356
-0.082329497 0.10370935 -0.0034365198
-0.063400954 0.0691652 0.035584301
-0.055016398 0.065347254 0.034518003
0.014701569 0.034838032 0.025253126
0.015119033 0.035165921 0.039173823
0.02251737 0.037200078 0.032620631
0.0050327154 0.03720453 0.035282962
0.026325367 0.043231416 -0.0070424769
0.034802806 0.045351159 -0.0052163899
0.043916021 0.046651144 -0.0032524031
-0.065916002 0.066208601 0.030551899
-0.0046691759 0.039037425 0.032031205
0.0035423848 0.036619313 0.037298951
-0.071623497 0.069358498 0.0301698
-0.0042302511 0.038535617 0.035793517
-0.070997797 0.069859102 0.031621501
-0.072481975 0.14905109 -0.034480084
-0.0028266907 0.034796935 0.041205999
0.0043943427 0.036658134 0.043684442
-0.0049854466 0.038228523 0.0051442743
0.016453205 0.064110234 -0.028915707
-0.069094151 0.070355654 -0.0084884148
-0.071814403 0.147892 -0.030445701
-0.068911299 0.147966 -0.0319204
-0.075393729 0.12477452 -0.0075224843
0.045592576 0.041739527 0.016109398
-0.085847996 0.10467453 0.0046991496
0.051236749 0.046270501 0.021026799
0.0035164726 0.034446508 0.015705006
0.045808613 0.042884171 0.0041962825
0.0049817213 0.036006819 0.045243062
-0.068913899 0.14899901 -0.036760099
0.00021950201 0.037097901 0.046785101
0.012198039 0.087892555 -0.030836001
-0.0052685165 0.035025015 0.045449305
-0.070154801 0.14874101 -0.036649302
-0.015106695 0.085521638 -0.03845517
-0.0051884726 0.085022852 -0.037056252
-0.058997799 0.097952791 -0.019343536
0.0047059646 0.084545054 -0.033844605
0.050668001 0.045175102 0.019137399
-0.008324882 0.036679916 0.049334139
-0.065342098 0.095271252 -0.017477706
-0.064456642 0.068011485 0.033749413
-0.065777235 0.072588421 0.037598677
-0.0277653 0.1189145 0.030409899
-0.068911053 0.11156 -0.010834999
-0.068776399 0.18048701 -0.058304202
-0.088748693 0.14753222 0.028060555
-0.065561563 0.076991215 0.040666278
-0.0053880396 0.11594163 -0.016679408
0.029169252 0.11935662 0.0024499893
0.032346468 0.11334281 -0.0038492705
-0.086460717 0.14506985 0.03512194
-0.074742377 0.074920699 0.033128243
-0.076016001 0.11611719 0.050934069
-0.007210983 0.039378643 0.0368261
-0.090764105 0.11571366 0.042118669
-0.026112754 0.15616092 -0.0067962911
0.0052733244 0.12167253 -0.012446645
-0.03353902 0.1739246 -0.013756933
-0.020658899 0.169735 -0.020182051
-0.01587256 0.18308124 -0.025527626
-0.0095250616 0.1738894 -0.028026968
0.0022489501 0.098316327 0.050793875
-0.025413744 0.15861817 -0.01159256
-0.0095341699 0.1680505 -0.023233999
-0.016225688 0.16357097 -0.016545763
-0.0035957799 0.10060371 0.046589933
-0.041371867 0.16421311 -0.011064011
-0.0198183 0.158714 -0.0097049102
0.055066742 0.067206778 0.0021078961
-0.092161 0.12598881 0.035212331
-0.028786641 0.15900061 0.00071148376
-0.055439651 0.15276976 0.026870027
0.046858165 0.068072848 0.0011492025
-0.091448225 0.127422 0.040239435
-0.024606401 0.16439287 -0.016220743
0.017388292 0.1283675 0.011199766
-0.026222683 0.11315215 0.038084462
0.00093379949 0.10041775 0.046933927
0.032059852 0.09217684 0.041731648
-0.068496533 0.11203211 0.044325244
-0.035147954 0.12483777 -0.0042352472
-0.047181919 0.16597474 0.0031825099
-0.087772772 0.1509838 0.028230172
0.027478663 0.094071627 0.042783726
-0.089559905 0.13653216 0.034994166
-0.014500251 0.034838963 0.046520349
-0.027039485 0.17593929 -0.01774445
-0.035315208 0.17569512 -0.0073733144
0.034488935 0.10512111 0.037560325
-0.091268688 0.14536083 0.016629696
-0.064693101 0.15196499 -0.035455544
-0.071323343 0.1492808 -0.03874578
-0.067687705 0.14889118 -0.034160737
-0.084812529 0.11311606 0.044218719
0.025642814 0.12343531 0.012705544
0.039113633 0.10825569 0.023481891
-0.090629838 0.11426654 0.035208166
-0.03808986 0.17219155 -0.00090807956
0.031249924 0.111587 0.031369463
0.0057996288 0.13403082 0.017214447
-0.013678645 0.16853029 -0.022461297
-0.014603201 0.17491494 -0.026005618
-0.074843578 0.11207931 0.046665426
-0.010899073 0.16368526 -0.011614834
0.0046548853 0.12492611 0.033326067
-0.0058793342 0.12305615 0.034337133
0.0106243 0.090990752 -0.030485351
-0.083001226 0.14264129 0.042500492
-0.0042839255 0.12793866 0.0281584
-0.038044117 0.17676741 -0.011263024
-0.027173562 0.12606636 0.0048419787
0.053382933 0.071178637 0.0054618679
0.037737936 0.10553111 0.027175073
-0.014997012 0.10484785 -0.022733172
-0.068731867 0.11023433 0.038996365
0.05547652 0.065082714 0.02497936
-0.071102552 0.15360077 0.010314879
-0.057826526 0.14243799 0.032434627
-0.06506969 0.15757011 -0.053192388
-0.065001667 0.12561232 -0.0086733978
-0.026717659 0.15731366 -0.00083851418
-0.066936627 0.1431206 0.042315993
-0.049538065 0.13147467 -0.00086848933
-0.075718358 0.1454372 0.043022156
-0.025703218 0.086216137 0.048153691
-0.0698715 0.11424 0.050428201
-0.048410349 0.07160455 0.040705126
0.01397186 0.12805019 0.00041955858
-0.068851344 0.1237447 0.052750204
-0.022121659 0.17501669 -0.021140322
-0.070710197 0.149836 -0.0414255
-0.067780405 0.17580654 -0.058245514
-0.063792184 0.17488542 -0.060825903
-0.072241016 0.11638222 0.051112778
0.023323562 0.1027244 0.042374272
0.030607885 0.10381953 0.037004571
-0.0174959 0.098496303 0.045127202
0.0054121246 0.10379025 -0.018124962
-0.0078627523 0.16106476 -0.011101278
0.041382678 0.039495889 0.014803145
0.038470633 0.095871754 -0.004569611
-0.036555436 0.17403756 -0.012071409
0.018982537 0.087860636 0.049507566
0.024635838 0.12338942 0.0051168692
-0.022119664 0.11607023 0.03867273
-0.075927556 0.12642966 0.053324059
-0.024898704 0.15882641 -0.0062174033
-0.0030136765 0.12828363 0.014472248
0.0060433587 0.12543373 0.028826574
-0.0061380113 0.13217923 0.015059954
-0.0024664572 0.13041586 0.0030236954
-0.08893618 0.14406535 0.011476894
-0.060531523 0.15835282 0.021644276
0.0048777326 0.13106214 0.0055665462
0.042452991 0.098084144 0.0041850628
-0.077959619 0.1730963 -0.037261032
0.004363359 0.092979826 -0.031894438
0.047349613 0.071974583 0.0051982766
0.038738094 0.10799151 0.0056054774
-0.090795755 0.11539559 0.0077174082
-0.092006542 0.11472283 0.015511476
-0.02457572 0.1159049 0.034104787
-0.074405067 0.11661678 0.052178822
-0.086680412 0.1139725 0.0035928125
-0.088627644 0.11144983 0.015889701
-0.074934475 0.15552624 -0.025439108
-0.072890423 0.15541109 -0.03533686
-0.024201808 0.1530541 -0.0045390259
-0.048324183 0.1330409 0.023931036
-0.026369123 0.074846603 0.045793507
-0.070897423 0.150829 -0.043495774
-0.07835649 0.13354075 0.045449857
-0.0059265587 0.11279974 0.042045813
-0.015362716 0.1262258 0.027304277
-0.074685119 0.14256105 0.046141043
-0.060064901 0.129705 0.039485
-0.074160293 0.15398213 0.033267513
-0.088439398 0.15321086 0.026805494
0.040642329 0.097583488 -0.0046930467
0.0091563538 0.11471415 0.043670911
-0.055408023 0.07268022 0.040631767
-0.055827118 0.13454203 0.033682577
-0.066534884 0.15660208 0.033803172
-0.066460393 0.14721234 0.042067755
-0.00076215493 0.12729548 0.035668086
-0.0038767331 0.11506046 0.043249141
-0.034425199 0.12407854 -0.0021954526
-0.060228098 0.059992 0.021311199
-0.075251557 0.12028623 0.053325813
-0.0041357982 0.10711962 0.041254003
-0.026831023 0.12450201 0.0047793277
-0.028284917 0.12274536 -0.0014868781
-0.006853872 0.13688657 0.014323445
-0.093341194 0.12735666 0.024944112
0.037053399 0.053209584 -0.0064617163
0.045280434 0.087051779 0.016651209
-0.0030256789 0.12667821 0.028752221
-0.039606698 0.14927649 -0.0016700199
-0.065330476 0.16478804 -0.025326898
-0.06212236 0.15421486 -0.025178352
-0.035000242 0.15311249 -0.0056915856
-0.044461489 0.15458828 -0.0072444561
-0.077444911 0.14565493 0.04234919
0.040641099 0.046215899 0.030909199
-0.076435171 0.14855567 0.038933694
0.0090289656 0.11541391 0.041918401
0.041378167 0.09556973 0.02510743
0.040605709 0.10385295 0.02236334
-0.014461898 0.12801145 0.01384995
-0.044432487 0.16541396 0.0044298638
-0.0033543638 0.095843315 0.052155539
-0.02945905 0.0355772 -0.0300979
-0.021744436 0.088626958 0.049380455
-0.075766779 0.13303261 0.051624045
0.029887585 0.093810432 0.044491019
0.041414816 0.10328549 0.018863687
-0.092568532 0.11682262 0.039129771
0.039468903 0.098176137 -0.0078896591
-0.088984713 0.12159464 0.0075058625
-0.076430991 0.16480041 -0.03565754
-0.076126315 0.16568236 -0.0258244
0.015541063 0.12295856 0.032899719
-0.0055850958 0.10098972 0.050674811
-0.003674336 0.11204529 0.042850513
-0.028118828 0.12704067 0.0040361956
-0.013942558 0.12528774 0.025441816
-0.035950374 0.17491287 -0.0031742149
-0.089563265 0.15083824 0.017123085
0.0038211488 0.12214972 0.036581703
-0.074057445 0.15342368 0.026507467
-0.004860301 0.12683389 -0.0053361184
-0.090357624 0.12823164 0.0033257687
-0.068612091 0.084482297 0.042400215
-0.0040313769 0.13038059 0.015571604
-0.083276935 0.15000565 0.033245567
-0.024377979 0.044542741 0.05253185
-0.067382611 0.14536211 0.041660946
-0.072893232 0.12413894 0.051945519
0.034287058 0.093734838 -0.01471249
0.043823745 0.081127368 -0.00960337
-0.024724603 0.11387854 0.035517901
-0.063926868 0.14562684 0.037795819
-0.091791257 0.14535084 0.026059184
-0.067760997 0.13523261 0.045538347
-0.022680752 0.12270323 0.023828285
0.043669574 0.095205411 0.0042045135
-0.0017904472 0.1314202 0.014754289
-0.073400371 0.13758278 0.048796196
-0.093621001 0.12482964 0.014765941
-0.024218967 0.051365554 0.045460831
-0.064744793 0.13587183 -0.0076516704
-0.0054238695 0.10370056 0.04629327
-0.021211507 0.052401792 0.050121531
-0.070906669 0.15789443 0.0073072636
0.0043809363 0.04830505 0.051904909
-0.015433708 0.04616053 0.051797934
-0.016541949 0.11364994 0.038393583
0.044695165 0.097329833 0.01596011
-0.033895802 0.12465645 -0.0020359608
0.045761049 0.063339822 -0.0024142116
-0.021452751 0.090611674 0.053607773
-0.02673194 0.17283581 -0.019927779
-0.0040005804 0.099229671 0.050981954
-0.045536678 0.16528574 0.0033503212
-0.014576741 0.046765715 0.048139602
-0.013361678 0.051034372 0.047612812
-0.00072051911 0.12815329 0.024260169
-0.075194649 0.13515882 -0.0066484232
-0.054411806 0.15482323 0.014617172
-0.010642517 0.1305117 0.0092289699
0.036487382 0.10491193 0.023117611
-0.091282584 0.1204325 -0.0017938674
-0.090023994 0.12128016 0.0063009881
-0.087088555 0.11697415 0.0023211944
-0.088554293 0.12871954 0.0059733232
-0.082707994 0.11154791 0.019887958
-0.029052403 0.12400094 -0.00029774194
-0.024799518 0.12201233 0.017669013
-0.017225953 0.1284968 0.0065208366
-0.025052756 0.046750586 0.047812905
-0.078278735 0.15218213 0.038356263
-0.091922477 0.11650525 0.024018468
0.042595681 0.098974369 -0.0011802298
-0.006803453 0.12894271 0.014525509
-0.048457552 0.15925986 0.011562505
-0.07408426 0.15574227 0.027369816
-0.013111455 0.12515208 0.030154847
-0.075909868 0.10822251 0.037127782
-0.012408176 0.16832253 -0.01808494
-0.017876867 0.16105333 -0.0072540673
-0.0026279921 0.124186 0.026885536
-0.034763176 0.16527589 -0.014319709
0.044765346 0.054988749 -0.0054667974
-0.081681013 0.15130614 0.034743518
-0.052849539 0.1545701 -0.0034188279
0.034685429 0.051311839 0.033132121
-0.091072507 0.14342712 0.032338805
0.0052170213 0.052974228 0.052601416
-0.073305681 0.1257925 0.049826551
-0.014738905 0.11417382 0.041337714
0.03544686 0.09951634 -0.0083027603
0.0041242386 0.11328791 0.039321441
-0.041748904 0.17224202 0.0018692033
-0.056360766 0.15190431 0.033727087
-0.004974125 0.12448622 0.035127908
-0.0096084317 0.12842725 0.0096552856
-0.072358519 0.11551487 0.053699233
-0.016895393 0.052447125 0.047534224
0.0072586332 0.1281269 0.022937961
-0.087769136 0.12595168 0.00064371561
-0.061045405 0.16632225 -0.029351605
-0.014160961 0.13200593 0.013832554
-0.057078827 0.15754475 0.0086885719
0.033750966 0.10192496 0.03591159
-0.081538111 0.12756461 0.052310295
0.035522282 0.04282596 0.027599258
-0.026396001 0.12677881 0.0060932534
-0.076226644 0.094696127 0.041650414
0.047405388 0.097138561 0.0079673426
-0.076253898 0.12644081 0.053583484
0.015859185 0.11424363 0.037794951
-0.085168228 0.11194493 0.047599163
0.04285942 0.09522865 0.022705184
-0.07072828 0.15682152 0.02337506
0.047462039 0.093577504 0.017544681
-0.0093664918 0.12938792 0.022262327
-0.01650852 0.056155384 0.048739873
-0.072040163 0.15533723 0.0048342366
-0.063469321 0.1553914 0.005253654
-0.082113095 0.16699007 -0.037921291
-0.07185331 0.170384 -0.029111916
-0.073961101 0.16307412 -0.015482951
-0.063342415 0.15246072 0.035014775
0.044283643 0.043994058 0.024794379
-0.0059694191 0.13351691 0.016556839
-0.071964309 0.15821302 0.013177867
-0.029948633 0.12804981 0.016448274
0.016888147 0.12793964 0.017074795
-0.079699025 0.15650824 0.020826718
-0.078935936 0.12561099 0.052674644
0.038079049 0.086277641 -0.015263411
-0.018894812 0.12800278 0.013673856
-0.076148637 0.095797017 0.038512345
-0.004893783 0.12201674 -0.011433616
0.043765035 0.096111313 0.011563065
0.007332148 0.12836435 0.016521601
-0.00080942735 0.12876259 0.027984751
-0.016508911 0.17441301 -0.017695472
-0.067097634 0.15567979 0.027849723
-0.014033997 0.12639469 0.024108551
0.048041806 0.069137737 0.02210095
-0.052300226 0.15277332 0.017759994
0.04026705 0.091348052 0.031102849
0.050514098 0.0610459 0.030169901
-0.04217805 0.17188846 -0.0055660959
0.003241051 0.12220895 0.035863783
-0.034099896 0.1310083 0.0051207002
-0.0071166358 0.13382491 0.012110654
0.036503334 0.10499554 -0.0060291449
-0.0049695 0.054510985 0.053714279
-0.064312041 0.1484167 0.036233731
-0.076877914 0.12963013 0.053810783
0.027230307 0.10236772 0.03958372
-0.075878352 0.13554719 0.052070171
-0.076422505 0.15488879 0.02922643
0.00094459479 0.12521516 0.029555041
-0.077875495 0.13504046 0.048563056
0.015810236 0.12591077 0.032024838
-0.064480469 0.15188229 0.036395289
0.039649062 0.075884342 -0.0097910436
0.033158138 0.11421779 0.025010116
-0.069099709 0.16025713 0.0054873726
-0.089318134 0.13760856 0.011923886
-0.076488212 0.16565514 -0.025403785
-0.0501104 0.138566 0.0193811
0.0033350503 0.12984449 0.007939782
-0.083924703 0.14288634 0.040184081
-0.030709924 0.18145631 -0.010886705
0.037785746 0.053693313 0.0327246
-0.008108641 0.17586693 -0.02384359
-0.017848993 0.08635962 0.058392208
-0.038146582 0.12470656 -0.0037987616
0.041933343 0.10233267 -0.0046160435
-0.023484314 0.12579085 0.01409052
-0.025190925 0.1260539 0.0044661164
-0.0014321592 0.13433228 0.014507545
-0.083231933 0.1338729 -0.00190784
-0.077921398 0.17391196 -0.042605851
-0.072756112 0.15363206 0.034752183
0.015468991 0.12586257 0.02643593
0.0072076623 0.12540773 0.033420693
0.043385588 0.09266042 0.0048692748
-0.064959213 0.11388487 0.04948432
-0.054664668 0.15279068 0.022038568
-0.0071414942 0.12459679 0.027374147
-0.088031963 0.13790064 0.0068371161
-0.059535868 0.14835635 0.036777534
-0.01058295 0.1770063 -0.024818603
-0.086334623 0.14642645 0.032721099
0.043318592 0.055407815 0.028079234
-0.082598343 0.15512529 0.024994835
-0.011553724 0.12815553 0.014920881
-0.035610434 0.13000527 0.02234786
0.0047273547 0.044207051 0.046418726
0.046252094 0.061033517 0.032268338
-0.067759693 0.17212826 -0.048633225
-0.021351395 0.12144065 0.031001698
0.041578773 0.10477678 -0.00021669279
-0.094049968 0.117474 0.02006112
-0.089055069 0.1217764 0.039234433
-0.080192797 0.109885 0.040848698
-0.0033935872 0.12799914 0.013661026
-0.08771164 0.14073738 0.0032428729
-0.022946611 0.053070053 0.04462222
-0.0020532289 0.056679774 0.060324781
-0.062225401 0.1361175 0.03738917
-0.0089360457 0.12833782 0.031373341
-0.077455975 0.12448008 0.051525176
-0.0034422812 0.12813908 0.0045641158
-0.077590734 0.15252693 0.024282482
-0.0098687634 0.12708506 0.027761772
-0.042335946 0.17079487 -0.0023240047
-0.09160921 0.13626409 0.0021475679
-0.068001755 0.1568604 0.0019536396
-0.077741086 0.15477315 0.023361053
-0.035670687 0.17564474 -0.0037088394
-0.063917711 0.15380353 0.034820672
-0.071308382 0.15293309 0.030206794
-0.074770167 0.14490654 0.044367354
-0.066093132 0.16736323 -0.047428995
0.043059532 0.059591074 0.02788122
-0.053114288 0.1136657 0.03491956
-0.0033847077 0.10229962 0.047135912
-0.022811988 0.12233911 0.025962723
-0.093684897 0.12368868 0.022970622
-0.086099081 0.11164343 0.035347611
-0.09411969 0.11963906 0.021101968
0.044295117 0.055306286 0.032749083
-0.033572212 0.11949638 -0.011612406
-0.058856223 0.15150446 0.036049291
0.041189987 0.093714669 -0.0042879572
-0.0064288909 0.13115984 0.019181976
-0.063034624 0.15251078 0.014535451
-0.091632269 0.13353153 0.015353987
0.035923377 0.10108038 0.034804642
-0.018349105 0.12018206 0.026531395
-0.0051397514 0.11762606 0.043746237
-0.0089722499 0.10047934 0.051554035
0.011079122 0.047607269 0.047187056
0.034010887 0.046838284 0.032477964
-0.024120625 0.12551861 -0.0016662547
-0.076958776 0.15146093 0.042315371
-0.017310312 0.11436997 0.043104429
-0.086831674 0.15296963 0.025006549
-0.02220634 0.12613234 0.0043147174
0.032800842 0.10387017 -0.01218907
0.04420732 0.095627442 -0.0041189408
-0.08774142 0.11309268 0.025573945
0.038882542 0.060918804 0.032488473
0.044688988 0.098367788 0.0027239744
0.0054690419 0.13113146 0.015406693
-0.036908928 0.12313173 0.02598176
-0.044398215 0.11507241 0.034253795
-0.06957455 0.14963949 -0.0405889
0.0015717949 0.12996596 0.0039614309
0.043148722 0.09787301 0.022999829
0.00022536592 0.099158004 0.050216876
-0.0050725667 0.046741899 0.051562171
-0.024556808 0.12492076 0.0043787062
0.0036420252 0.1230629 0.033507217
-0.08714658 0.095036812 0.024981778
-0.00048849813 0.099297114 0.051959217
-0.06735944 0.15137288 0.04129184
0.041935407 0.048246145 0.032929808
-0.040902503 0.1585796 -0.01068784
-0.069192342 0.15062296 0.039189167
0.049291365 0.058273174 0.034330696
0.037774075 0.10655974 -0.0014310325
-0.091051057 0.11762575 0.038775038
-0.08107473 0.16661227 -0.018787019
-0.073061392 0.15779686 0.010744441
-0.0047934121 0.058459163 0.055336922
-0.0025954726 0.12678151 0.015307126
-0.079655789 0.11976878 0.051744822
0.044130821 0.093190163 0.016139511
-0.064452901 0.15334602 0.024786562
0.048279997 0.087415613 0.0058986773
-0.067330599 0.060868155 0.015289836
-0.057733726 0.062555239 0.027315546
0.010728422 0.062073756 0.052201893
0.037879493 0.10409822 0.0035909677
-0.021604108 0.16080515 -0.0025209158
0.045670327 0.063354157 0.027899116
0.043940865 0.059131548 0.03008569
-0.023908818 0.12653421 0.012345289
-0.097916082 0.12079302 0.022280604
0.0052713272 0.12843797 0.014593709
-0.038894799 0.13155006 0.0023474735
-0.061172809 0.15741254 -0.030486468
0.041688565 0.09993472 0.0032436571
-0.06337329 0.070105843 0.041804925
0.0016745661 0.12881108 0.021471601
-0.062617071 0.059157308 0.014754593
-0.0017682683 0.12840813 0.015195299
0.0501367 0.085413814 0.010118245
-0.06754633 0.090552203 0.043333769
-0.044638555 0.15251394 -0.0087910909
0.0373981 0.065440483 0.033547297
0.047235444 0.089223176 0.023128154
-0.006057288 0.13141701 0.014353451
0.014886077 0.12834422 0.014815102
-0.061595585 0.15350515 0.020339046
-0.0049422942 0.12699232 0.026839999
-0.018781999 0.15954034 -0.010984267
-0.03475083 0.1576362 -0.011399157
0.029225178 0.11983456 0.017246289
-0.06168313 0.10275511 -0.020888191
-0.0056948904 0.12234306 0.034891881
-0.012631484 0.047874328 0.050477952
0.027234754 0.099751331 0.04087412
-0.015529681 0.054668751 0.048309568
-0.090382591 0.14720581 0.026284555
-0.022761172 0.12490084 0.023463547
0.050806947 0.059388556 0.02839582
-0.074492402 0.16026658 0.017097201
0.03817445 0.058577992 0.035774641
-0.053662866 0.14496617 0.025062062
-0.014350411 0.12233882 0.033913735
-0.07481692 0.092834041 0.039196827
0.034964949 0.036885034 0.015367116
-0.079222903 0.070914783 0.0067279385
0.02008006 0.043375947 0.040915817
-0.072563455 0.15230083 0.031036353
-0.082537919 0.15470025 0.014899757
-0.050307117 0.13018233 0.012580543
0.014531204 0.12635131 0.024354693
-0.053603541 0.15445003 0.019026138
0.0045495159 0.05676537 0.054535031
-0.015043409 0.039021052 0.034900606
-0.036749411 0.16740119 -0.0038117196
-0.0041129664 0.11761621 0.037181213
-0.034655236 0.11571666 0.033723336
-0.082707286 0.15199098 0.030489417
0.045840796 0.064873457 0.027447397
0.0059224558 0.13170664 0.015379392
-0.058612097 0.15579417 0.024011767
-0.025633479 0.12552345 0.0054393453
-0.095263809 0.12792835 0.029736826
-0.020646254 0.065709636 0.053887621
-0.023386991 0.11598731 0.033772778
-0.081930332 0.09533298 0.032208417
-0.068456471 0.12231955 0.054413747
-0.065383099 0.15543754 0.019260641
0.017196288 0.12735595 0.016989011
-0.055128604 0.071019053 0.039291006
-0.091062337 0.094685309 0.014931003
-0.01708059 0.048072442 0.046348173
-0.033270791 0.11988719 0.027186841
-0.079085313 0.083934791 -0.0091331778
-0.06308163 0.17326911 -0.052839089
0.014482705 0.036876857 0.042948946
0.039393727 0.088980749 -0.0057497583
0.044114672 0.096092045 0.014483086
0.015737176 0.12695964 0.024452662
0.043240365 0.097619087 0.021817373
-0.045748003 0.16586864 -0.0060036047
-0.078400671 0.14671639 0.033374295
-0.032515608 0.15085973 -0.0063448688
-0.026597936 0.065479659 0.040337969
-0.080114253 0.14072691 0.044884551
0.017540319 0.11841962 0.028593162
-0.016030483 0.035486732 0.050653193
-0.014504897 0.11811031 0.035562474
0.0057592462 0.1312366 0.018609267
-0.091459729 0.1335863 0.024090391
-0.089325324 0.13676436 0.026927
-0.016248174 0.060722742 0.048484437
-0.048683673 0.13421714 0.031715989
-0.092888899 0.14691681 0.015973151
0.044620629 0.062400125 0.031715203
-0.024180701 0.034943625 0.051040884
-0.091291092 0.12730269 0.034117166
-0.057831511 0.15417585 0.029616961
-0.056884672 0.11209246 0.040876649
-0.076392286 0.15477797 0.028888192
-0.019114964 0.11973796 0.029801054
-0.0036561342 0.12447482 0.032567278
-0.08909554 0.095655933 0.01550251
0.043174494 0.085749298 -0.0086416658
0.04311581 0.08984755 0.018763121
-0.0040842211 0.13201702 0.014985746
-0.079107232 0.15313204 0.016137375
-0.0059103877 0.13083728 0.0070703127
-0.089895859 0.14015339 0.03835313
0.042063117 0.10180351 -0.0031704914
-0.074471243 0.11840576 0.053949591
0.029407384 0.10156946 0.035757296
0.0088448506 0.10497172 -0.017787173
-0.065326601 0.12159903 -0.0090163182
-0.016804025 0.12437086 0.012136465
-0.035443276 0.16676794 -0.013638792
-0.072062716 0.12094969 0.048224669
-0.018273743 0.099666424 0.046755929
-0.060297459 0.042392671 0.046706639
-0.012871843 0.13257092 0.013511201
-0.027864117 0.12340084 0.019723129
-0.075608075 0.084551394 0.034304261
-0.063090675 0.15965447 -0.031376332
-0.087304421 0.15230575 0.018591451
0.0016111848 0.1296915 0.015831426
-0.019746441 0.17788684 -0.024809564
0.0051022172 0.11374533 0.041312553
-0.075024657 0.14547496 0.045922868
-0.034998644 0.15788129 -0.014057939
0.045799885 0.067056291 0.025643395
-0.024553208 0.16930485 -0.020187598
-0.009138396 0.11540879 0.041407868
-0.026405429 0.072412401 0.038963512
-0.09156213 0.12143525 0.024877321
0.0014351547 0.13373412 0.007727141
-0.0037060638 0.12709433 0.026792364
-0.075528994 0.13424937 0.05209304
-0.0053777797 0.11826733 0.036594775
-0.072485201 0.12329949 0.054607004
0.015339853 0.12502863 0.025432087
0.0035548345 0.12965319 0.024184942
-0.062685102 0.035175961 0.041821085
-0.058412414 0.15686317 -0.032691903
-0.058432847 0.11928133 -0.0082786791
-0.055511404 0.15458649 0.015882883
-0.040210277 0.17207102 -0.011405347
0.044337958 0.086428486 0.030299962
-0.078603789 0.14460142 0.04363412
-0.072251752 0.14620154 0.039957564
-0.067477778 0.14586809 0.041154154
0.0049523036 0.11722963 0.037320822
-0.0092757661 0.16651255 -0.021870911
-0.0063540917 0.1345574 0.010326762
-0.028713897 0.11710323 0.032232698
-0.00077207515 0.11785347 0.041710131
-0.042704213 0.12076518 0.031557068
0.012746274 0.13079089 0.015745237
-0.061591916 0.11442952 -0.013540568
-0.022963772 0.12302539 0.021672452
-0.015528643 0.11527852 0.037183803
-0.079683393 0.11730123 0.054440841
0.047567699 0.05820867 0.028908946
-0.0060352925 0.12949182 0.014705006
0.0056330236 0.12318385 0.034718275
-0.065871373 0.15711573 0.025644135
-0.076758474 0.12123039 0.053742666
-0.074633777 0.15547423 0.003499211
-0.010792347 0.13137914 0.0086218454
0.016204538 0.054017339 0.047966182
0.0085421503 0.12448847 0.026955985
-0.019619392 0.12880708 0.013058806
-0.088876858 0.15161705 0.017092098
-0.018281525 0.12720844 0.015710428
-0.085533589 0.14997618 0.025813941
-0.064932384 0.157866 0.014243867
-0.05154356 0.14504524 0.016685696
-0.073729828 0.14517513 0.046158418
-0.025993019 0.15392318 -0.0077483291
-0.06786748 0.14967121 0.038706899
-0.087416753 0.14052224 0.030360539
-0.014460047 0.12536792 0.025532234
-0.0017881743 0.13301612 0.012252338
-0.082783446 0.12413394 0.050637484
-0.052652813 0.16269891 0.0030576373
-0.063577294 0.15134232 0.030076833
-0.0082138963 0.18162969 -0.027699675
-0.088334374 0.15270628 0.025091227
0.0060555204 0.088866726 -0.03106541
0.044359796 0.068828367 0.025597593
-0.014115957 0.10459625 -0.022374017
-0.082060769 0.10806739 0.041931953
-0.0065912674 0.054448482 0.048778508
0.014679129 0.090318054 0.048829
-0.072435394 0.12829347 -0.0071185511
0.043284304 0.091887034 0.024555886
-0.0042249728 0.12916258 0.0088821668
-0.075008422 0.12387831 0.054438822
-0.069145374 0.12345062 0.054794867
-0.0054564839 0.065728135 0.055703629
-0.066176198 0.15363705 -0.044945791
-0.043314133 0.12882541 0.0043408433
-0.074386254 0.15208089 0.033927724
-0.016920352 0.081763603 0.055452362
0.041719101 0.088723227 -0.0081705274
0.00067450874 0.098172165 0.050070111
0.012691118 0.12137134 -0.011576711
-0.019773901 0.13136658 0.010813326
0.050100181 0.05797068 0.033674542
-0.0054892483 0.1164976 0.042227887
0.013986568 0.09256354 0.05409443
-0.073342308 0.11371644 -0.0067863981
-0.062007058 0.074455991 0.04293067
0.035409052 0.10810382 0.024558919
-0.045354597 0.14786701 -0.0024620814
-0.082437128 0.15840551 -0.012185334
0.015230027 0.12821084 0.019165052
0.0041735978 0.080474891 0.058102328
-0.067801282 0.12294403 0.052916646
-0.078003697 0.15225852 0.0094263842
-0.010652575 0.098494276 0.0459962
0.0061363033 0.12343232 0.035879694
-0.08146213 0.13290103 0.052926999
-0.06344822 0.15674125 -0.033483695
0.0040238407 0.051019073 0.047368363
-0.0063067842 0.12722492 0.0045952555
0.043861102 0.095668696 -0.0030892652
-0.017825499 0.12808932 0.01276624
-0.074804403 0.15530163 0.016446134
0.0039117644 0.12978655 0.017967485
-0.073254138 0.14177841 0.047578238
-0.0032251496 0.11700375 0.041735969
-0.0016552744 0.13166893 0.01243397
-0.061591588 0.15452781 0.031839922
