# .PCD v0.7 - Point Cloud Data file format
VERSION 0.7
FIELDS x y z
SIZE 4 4 4
TYPE F F F
COUNT 1 1 1
WIDTH 1293
HEIGHT 1
VIEWPOINT 0 0 0 1 0 0 0
POINTS 1293
DATA ascii
-0.021200113 0.071981028 0.050673898
-0.084734924 0.10115419 0.027049718
-0.072565153 0.13822174 -0.0066120648
-0.080704816 0.13956995 0.045940418
-0.055829067 0.086309768 -0.020722475
-0.082503192 0.10255676 0.030186098
-0.08339113 0.10418126 0.027623525
-0.073054783 0.086285584 -0.014365639
-0.084065445 0.12429354 -0.0023031472
-0.086687997 0.093483843 0.024595683
-0.030273726 0.079831474 0.044334359
-0.084732644 0.11841015 0.046962272
-0.075559974 0.077889964 0.034712892
-0.086039484 0.10354245 0.023558868
-0.061088983 0.1248645 -0.0085477736
-0.080519825 0.094589233 0.033692203
-0.082894363 0.10192083 0.02953179
-0.070308469 0.087037727 0.041215606
-0.018167561 0.091324203 0.052841391
-0.09005893 0.11829725 0.041813016
-0.075182021 0.15844011 -0.015154753
-0.082498983 0.087746777 0.030860113
-0.085897185 0.096680731 0.025705941
-0.083608635 0.098920584 0.029208072
-0.085651986 0.10105088 0.025675185
-0.075595967 0.15556505 -0.0089588659
-0.086522296 0.13116299 0.046006218
-0.070178896 0.092095785 0.041232698
-0.082144193 0.1495984 0.032846428
-0.070021011 0.15484852 -0.045402724
-0.078822963 0.13381794 0.050222617
-0.084868394 0.13393135 0.046673711
-0.078471214 0.094131596 0.035643004
-0.060224164 0.156069 0.0030742206
-0.085330397 0.1052592 0.02367441
-0.074263461 0.090934992 0.039189883
-0.0829826 0.10054059 0.029340886
-0.084468789 0.1086161 0.02773561
-0.028896481 0.083338134 0.045816023
-0.087536715 0.14397345 0.031978332
-0.071010247 0.087028913 0.040686145
-0.064155117 0.13465078 -0.0077257277
-0.022942943 0.085318238 0.052571021
-0.069395162 0.079854243 0.0393149
-0.077505417 0.10121258 0.036029451
-0.07552243 0.090255708 0.038945012
-0.075587966 0.16565992 -0.027680332
-0.02050704 0.076208271 0.053603545
-0.029254105 0.07616099 0.044562109
-0.029197916 0.082869031 0.045931764
-0.075352788 0.10269955 0.037626378
-0.050856456 0.091139138 -0.021645531
-0.05093646 0.09168157 -0.021850185
-0.05162565 0.090177946 -0.021533648
-0.047403924 0.09197405 -0.021913027
-0.053297322 0.08947628 -0.021283077
-0.055120397 0.087720506 -0.020900635
-0.074553318 0.089231364 -0.013676744
-0.040652554 0.10764828 -0.019167896
-0.075416967 0.12399329 -0.0076357848
-0.084515937 0.1237199 -0.0016730023
-0.078477025 0.12484971 -0.0057204994
-0.037537988 0.1064596 -0.019838853
-0.071358301 0.10743015 -0.011122704
-0.032954901 0.10410566 -0.021319034
-0.034824155 0.10710179 -0.019967368
-0.037873939 0.10554735 -0.020230889
-0.064646453 0.12149521 -0.0088858195
-0.03982107 0.1029922 -0.020636585
-0.039386541 0.10281203 -0.020959772
-0.083537415 0.10307318 0.028326891
-0.073321089 0.15487456 -0.0031261032
-0.089626744 0.1170825 0.03968212
-0.074008301 0.082043774 0.037474439
-0.076612204 0.081975795 0.035997249
-0.018001892 0.10496726 -0.022495
-0.021453939 0.083334982 0.054574423
-0.066463605 0.080769919 0.041646671
-0.073504694 0.077245273 0.035383098
-0.084751613 0.14228755 0.039161902
-0.088687479 0.13233258 0.041881111
-0.084332809 0.099466212 0.027704997
-0.083408147 0.097533055 0.029579451
-0.083083197 0.098518468 0.030004911
-0.081628948 0.096752219 0.032567069
-0.083194479 0.095483899 0.030406732
-0.023241792 0.080340117 0.052618794
-0.025411185 0.071962528 0.045686085
-0.076226145 0.10669305 0.036095522
-0.079386435 0.080422066 0.032413453
-0.085388832 0.10462825 0.024813665
-0.08581797 0.14723966 0.032576587
-0.084428683 0.13364626 0.047225013
-0.073690139 0.10429242 0.038842704
-0.074701682 0.16277017 -0.017655212
-0.068759829 0.15350433 -0.04543348
-0.082339749 0.099646784 0.030447979
-0.074096277 0.15606992 -0.0078638382
-0.028474724 0.071384981 0.042313442
-0.025847148 0.068676487 0.044103228
-0.026591145 0.066082604 0.042396858
-0.02753973 0.071999766 0.044358756
-0.025775898 0.072744511 0.046061769
-0.026523253 0.071777217 0.044336323
-0.025606385 0.071772806 0.045839276
-0.025236228 0.072195083 0.045850955
-0.023821451 0.075023726 0.049910698
-0.020911492 0.071017332 0.051050309
-0.018266061 0.06849654 0.051887292
-0.02152372 0.070585214 0.050725147
-0.017296065 0.072272681 0.054111142
-0.018827099 0.072725177 0.052895311
-0.017857887 0.072572738 0.053961363
-0.017697904 0.070820555 0.053313132
-0.016354071 0.072612114 0.054435264
-0.07810875 0.10088147 0.034959231
-0.082995534 0.13786815 0.045518178
-0.079484053 0.097079344 0.034325656
-0.085497558 0.12208998 0.047637023
-0.020621739 0.07841865 0.053592481
-0.081147961 0.10720558 0.031069508
-0.090538457 0.12534226 0.040644713
-0.077504694 0.086523816 0.035980701
-0.045048092 0.10347074 -0.02027728
-0.086025976 0.11727321 0.046420284
-0.062605187 0.086079039 -0.019032134
-0.019752078 0.074903011 0.053891037
-0.08264976 0.1449708 0.039659612
-0.02111881 0.086002506 0.054628439
-0.048866022 0.16207409 0.004931936
-0.029233998 0.076678537 0.044428162
-0.074090846 0.090182334 0.039530199
-0.071196593 0.081221014 0.039307613
-0.081598878 0.083228499 0.02983484
-0.083905451 0.10058925 0.028384291
-0.069153525 0.082966842 0.041083645
-0.077956036 0.10174804 0.034806695
-0.015949946 0.17863724 -0.022520114
-0.020969888 0.083383836 0.054545347
-0.074567214 0.10148233 0.038145583
-0.082545444 0.13278826 0.049150757
-0.078636073 0.1016766 0.035332151
-0.069464333 0.15471908 -0.04128366
-0.066816963 0.081928112 0.041488197
-0.073363222 0.10084043 0.03799447
-0.023017876 0.18158165 -0.015049277
-0.082419246 0.10267516 0.030278314
-0.080310933 0.10248517 0.033000149
-0.031955354 0.076773845 0.043031458
-0.090685427 0.12498168 0.04116771
-0.091281734 0.12191932 0.038499009
-0.027420489 0.075490527 0.044864878
-0.087550737 0.13107164 0.044667263
-0.02712219 0.088200651 0.04804685
-0.023969298 0.085741349 0.05171226
-0.084372036 0.12701766 0.049491063
-0.069734506 0.08305461 0.040541362
-0.073815994 0.17585364 -0.04828376
-0.02390689 0.079927601 0.051630855
-0.0267062 0.079015374 0.047872081
-0.024492955 0.076444097 0.049501143
-0.0263323 0.079558469 0.04758868
-0.028645787 0.081087016 0.04651159
-0.070184596 0.076542199 0.038483199
-0.088899598 0.14690933 0.026740417
-0.040190287 0.090259373 -0.023022806
-0.041787934 0.091019437 -0.02255127
-0.041765939 0.090918325 -0.022534849
-0.066370532 0.12520571 -0.0082417624
-0.055416767 0.11100063 -0.016249694
0.00083021261 0.11255193 -0.019454155
-0.072220638 0.10845512 -0.010565767
-0.08565487 0.12374359 -0.0011825967
-0.035179522 0.10435142 -0.021096827
-0.035939835 0.10321673 -0.021438865
-0.057805903 0.11109187 -0.015598094
-0.030071663 0.10576192 -0.021200938
-0.027885985 0.10323132 -0.02252629
-0.055763554 0.055881035 0.0090562543
-0.021406179 0.10604829 -0.021808065
-0.073241018 0.1102939 -0.0090682749
-0.068813041 0.12013932 -0.0083720796
-0.041605178 0.10650902 -0.020055229
0.0038723242 0.091682665 -0.031751141
0.00075473264 0.090560064 -0.03336484
-0.074303836 0.096756086 0.038167231
-0.020103617 0.079135656 0.054142669
-0.085107647 0.095584683 0.027600111
-0.020341974 0.088410757 0.054233454
-0.024381099 0.084382355 0.051636361
-0.031571504 0.078653164 0.043143295
-0.073914103 0.089412779 -0.013918166
-0.079234488 0.093957901 0.034934748
-0.033566546 0.084360421 0.044271898
-0.082223848 0.082635604 0.028249968
-0.084401354 0.14359559 0.038171969
-0.088280208 0.13363938 0.040766314
-0.069105402 0.074332692 0.036455732
-0.080725506 0.10452576 0.034053016
-0.022966735 0.0847032 0.05279338
-0.016976552 0.08983016 0.054358587
-0.087203763 0.095920697 0.022839434
-0.083576575 0.12736329 0.049277585
-0.01791515 0.10140684 0.044530123
-0.061320402 0.14178771 -0.0072715124
-0.074957825 0.078706324 0.035092283
-0.084251903 0.13530231 0.046510819
-0.081072681 0.13373618 0.049409825
-0.027392721 0.093290463 0.0466245
-0.029094726 0.08254315 0.045352682
-0.072947972 0.091172807 -0.014377911
-0.074855767 0.10178604 0.037509952
-0.030061703 0.07150507 0.042126708
-0.02905719 0.073177204 0.042959098
-0.026980709 0.073020361 0.045071021
-0.026907435 0.072571494 0.043787148
-0.026474284 0.07135316 0.043286726
-0.025645789 0.071986556 0.045354571
-0.026219307 0.07095284 0.044742521
-0.026762558 0.075150616 0.045790639
-0.026027188 0.072284281 0.045368809
-0.021517536 0.069864467 0.049518786
-0.022355726 0.076317981 0.051736996
-0.020107836 0.072242096 0.051687002
-0.023342375 0.074403889 0.050033711
-0.017270789 0.070553862 0.053580042
-0.018072538 0.072358258 0.053539578
-0.019885359 0.071283735 0.051678378
-0.074420057 0.098169267 0.037933007
-0.070506513 0.10044861 0.039554764
-0.060847111 0.11057479 -0.014967939
-0.037618414 0.037318885 -0.023995247
-0.042079479 0.036300112 -0.023265714
-0.043617532 0.037014581 -0.019916562
-0.041952189 0.03638405 -0.022753492
-0.041817375 0.036875878 -0.02173041
-0.043603897 0.035703599 -0.0213376
-0.04724675 0.037563533 -0.014684424
-0.044870526 0.037424035 -0.016482672
-0.045125313 0.037535492 -0.015541439
-0.045745902 0.036054898 -0.016982023
-0.046186894 0.039269999 -0.013043377
-0.048307505 0.036982443 -0.013771013
-0.046131685 0.038220108 -0.014615838
-0.049227871 0.037586935 -0.011695002
-0.082870461 0.13213335 -0.0029385746
-0.0879969 0.12726627 0.00203391
-0.087662585 0.12722141 0.0021090333
-0.092345618 0.13038242 0.016347172
-0.091957293 0.12894307 0.028997909
-0.092096083 0.12854867 0.030045174
0.0074543012 0.10460683 -0.021472283
0.031073028 0.11584009 -0.0011664763
-0.0096999891 0.037171576 -0.022926472
-0.013624632 0.096503973 -0.02997772
0.026970128 0.11906279 -0.001099673
0.0047313441 0.10296793 -0.022501618
-0.068821244 0.037038386 -0.00019900687
-0.091989554 0.13067852 0.023560222
-0.09166342 0.13290726 0.023660736
-0.090692841 0.12072898 0.041532543
-0.040125046 0.038283058 -0.024287265
-0.041760758 0.037461404 -0.024959255
-0.040183514 0.037410684 -0.024064405
-0.042238653 0.036212556 -0.022178484
-0.043083746 0.037549879 -0.02249057
-0.0426572 0.038119737 -0.01934587
-0.044241738 0.035843167 -0.018463289
-0.044267297 0.036681697 -0.017605528
-0.043829799 0.037516501 -0.018104229
-0.045550518 0.038048573 -0.016846843
-0.044717681 0.036867402 -0.018594166
-0.04424978 0.038586393 -0.014613391
-0.048859574 0.037226278 -0.011407682
-0.047035281 0.037306894 -0.013900327
-0.047553785 0.036176223 -0.012031302
-0.082285143 0.07979884 0.02522259
-0.092269696 0.11740544 0.016987657
-0.091339968 0.11758489 0.012046413
-0.089778073 0.11808224 0.006860306
-0.086445369 0.11271407 0.0043822327
-0.085531302 0.1155456 0.0010835102
0.04830046 0.073744692 0.0070549101
0.0012889865 0.10663519 -0.021593112
-0.007985672 0.12018215 -0.012318273
-0.0099251289 0.092521146 -0.034108516
0.02687826 0.08022479 -0.02281197
-0.068418659 0.036262374 0.00022935079
-0.06825614 0.038858421 0.00028502947
-0.06834387 0.037757143 0.003408439
-0.093113273 0.12590796 0.022147451
-0.076431267 0.17139049 -0.038342819
-0.076668911 0.16895442 -0.034740664
-0.074940421 0.16814275 -0.033094846
-0.052906834 0.16034055 0.0018192427
0.025415093 0.11553589 -0.0085127251
-0.044467937 0.089893676 -0.022128113
-0.045581929 0.16540645 -0.0060028234
-0.044887677 0.16588663 -0.00084559753
-0.091646142 0.12971957 0.029940626
-0.091192663 0.1331684 0.029123502
-0.018930845 0.12290943 -0.0059531489
-0.065157369 0.17244138 -0.056741841
-0.067558877 0.16821915 -0.056190316
-0.06576284 0.16833477 -0.054000214
-0.068022817 0.1720902 -0.051867459
-0.070497721 0.17206128 -0.046986416
-0.072123095 0.17205776 -0.045206774
-0.091478087 0.12972143 0.0307361
-0.0588548 0.038466204 0.019296611
-0.06165228 0.037741635 0.018559506
-0.062312838 0.039590299 0.025451021
-0.06146786 0.038533203 0.024655985
-0.060919657 0.037778981 0.023897542
-0.092108518 0.1273488 0.028776959
-0.091728404 0.13052933 0.027953451
-0.090690136 0.13206914 0.030881174
-0.090909608 0.13089091 0.033877704
-0.092417777 0.12684265 0.033089466
-0.075620942 0.1680833 -0.034837704
-0.06562683 0.17238548 -0.056876455
-0.066038184 0.17056093 -0.053364277
-0.071428768 0.17313477 -0.051438775
-0.071883015 0.17092663 -0.045545761
-0.074516691 0.1740315 -0.045540258
-0.088524029 0.1390125 0.0087874969
-0.03914896 0.16985191 -0.0094695613
-0.076367468 0.16296938 -0.021493334
-0.071747273 0.17425571 -0.048302136
-0.040852573 0.16775565 -0.0052354317
-0.068502709 0.1732422 -0.052057408
-0.04039469 0.17043877 -0.0048179887
-0.090633422 0.13128921 0.034837119
-0.09137667 0.12942767 0.032337181
-0.075502634 0.17532705 -0.047824439
-0.073249772 0.17553203 -0.048572704
-0.075324222 0.17622563 -0.049078926
-0.091068149 0.13685164 0.016089872
-0.092043437 0.12345495 0.033984847
-0.091827355 0.1254003 0.034893271
-0.091755599 0.11860136 0.012490885
-0.040129174 0.038563773 -0.026017586
-0.04183697 0.036819935 -0.022077441
-0.041010119 0.039385758 -0.021392517
-0.041429613 0.037276771 -0.022493823
-0.042191397 0.036230553 -0.02143525
-0.045512196 0.037483476 -0.017904613
-0.044117842 0.038533375 -0.021395316
-0.042346086 0.037300508 -0.022099789
-0.042001139 0.039445583 -0.018795123
-0.044107854 0.037758633 -0.015718602
-0.043862965 0.038270399 -0.01653537
-0.045039676 0.039066046 -0.016592691
-0.047866724 0.03880645 -0.012703829
-0.045574877 0.037875187 -0.014191402
-0.048664752 0.038876206 -0.011716445
-0.050441045 0.036950599 -0.01019928
-0.086921729 0.12926395 0.00078187406
-0.08978039 0.11180584 0.016435947
-0.063219056 0.097935103 -0.017770525
-0.010921272 0.10715427 -0.021983868
-0.091880806 0.12594892 0.010221764
-0.030336563 0.1134868 -0.016666831
-0.063209236 0.037056003 -0.0070055705
-0.06402158 0.037618455 -0.00489242
-0.066494599 0.039853107 -0.00053797528
0.012930313 0.037022486 -0.019602403
-0.066603057 0.03878868 -0.0018932004
-0.068410471 0.038240533 0.0050556441
-0.067587778 0.04156651 0.00076237327
-0.091518819 0.12617281 0.03718733
-0.091230571 0.12837465 0.03466076
-0.089582101 0.1310107 0.03974447
-0.090978481 0.1287318 0.03710999
-0.076930791 0.16328135 -0.026321586
-0.075335793 0.16179246 -0.030361453
-0.072665654 0.15735655 -0.035028853
-0.073235586 0.16093177 -0.036041636
-0.073746644 0.1646886 -0.036439549
-0.070342496 0.16121112 -0.039669141
-0.069724552 0.15995254 -0.036801051
-0.07236331 0.16264991 -0.039035451
-0.068340644 0.16311404 -0.046070121
-0.071671903 0.16228454 -0.0451997
-0.068682581 0.15930517 -0.04478753
-0.069758773 0.15956622 -0.042012192
-0.068650588 0.1596856 -0.045993365
-0.091089971 0.12893888 0.036937892
-0.091218121 0.1285712 0.036283858
-0.059285313 0.038503699 0.020154832
-0.058557205 0.04043382 0.020843307
-0.061235081 0.037963275 0.025178371
-0.060380232 0.039284877 0.026200537
-0.061212778 0.041116778 0.02373164
-0.060492989 0.039424747 0.02453463
-0.063107096 0.038522713 0.028726406
-0.061681028 0.038612198 0.025050974
-0.0642009 0.038167831 0.032027312
-0.070408784 0.15495397 -0.042558394
-0.088645905 0.14013427 0.033533487
-0.07570608 0.16260044 -0.033351928
-0.074173994 0.17423396 -0.046413571
-0.033334456 0.098341286 -0.023078356
-0.090909258 0.12903664 0.036313236
-0.075843535 0.16269115 -0.021890717
-0.075504489 0.1606756 -0.023609824
-0.073355943 0.15838251 -0.031010076
-0.068886422 0.15852641 -0.044168781
-0.02326264 0.12013233 -0.010169232
-0.0093084294 0.12182568 -0.01051191
-0.045697451 0.16537404 -6.1695362e-05
-0.093457222 0.12639904 0.020027384
-0.072127104 0.16732518 -0.036964308
-0.065720402 0.16304019 -0.052653193
-0.065732054 0.16559312 -0.054557372
-0.075168625 0.17598383 -0.048416398
-0.073926918 0.17725624 -0.049800176
-0.072982565 0.1624801 -0.038878947
-0.068539083 0.16289303 -0.0458133
-0.066068634 0.16904795 -0.055457436
-0.01597935 0.12158779 -0.0092905564
-0.071567863 0.15000923 -0.027284609
-0.071058892 0.15225543 -0.035975568
-0.09210667 0.12405719 0.033672024
-0.092096455 0.11917636 0.013419216
-0.091093808 0.11633722 0.014018548
-0.039421197 0.037414648 -0.025103413
-0.040999796 0.036427479 -0.024364782
-0.038554978 0.040725548 -0.0247621
-0.04361501 0.038572997 -0.021355644
-0.04046509 0.038075894 -0.024256459
-0.040172845 0.038679242 -0.021803707
-0.045247681 0.039160624 -0.017698716
-0.045321122 0.039576616 -0.017214295
-0.044153437 0.038032524 -0.019408882
-0.04305746 0.037141692 -0.020545887
-0.04597111 0.038925599 -0.014907827
-0.046733003 0.039544206 -0.015248719
-0.045767821 0.039478406 -0.014790888
-0.044951502 0.041835703 -0.015289909
-0.047373779 0.037448127 -0.012962495
-0.049193632 0.038822725 -0.01064585
-0.089318849 0.12729031 0.0044925627
-0.0339741 0.10601678 -0.020506874
-0.07354866 0.11437976 -0.0079238974
-0.080033176 0.14686753 -0.0013184302
-0.090416327 0.13726661 0.028523073
-0.090759538 0.13453571 0.029349195
-0.064585157 0.039017823 -0.0032771628
-0.066967614 0.040472321 -0.0015316462
-0.066557802 0.039192595 -0.0015294825
-0.063930392 0.042755414 -0.0021633182
-0.067896686 0.038490858 -0.0020953091
-0.068367191 0.041078176 0.0016081079
-0.067653969 0.040699378 1.5545049e-05
-0.067704797 0.039452348 0.0012464225
-0.068143569 0.04162224 0.0019185955
-0.069040634 0.039077159 0.0052211005
-0.078383595 0.15117586 0.00023031139
-0.068811744 0.15682115 -0.043148935
-0.09095481 0.12866005 0.037894957
-0.082154877 0.14422654 0.0010623262
-0.092362486 0.12360501 0.011555212
-0.064769253 0.16957772 -0.056466516
-0.066175967 0.16954149 -0.05373285
-0.069141217 0.17097853 -0.051715445
-0.050711934 0.15761352 0.0036466487
-0.057268053 0.15535539 -0.00034869081
-0.05379919 0.16036651 0.0020440831
-0.05506248 0.15835603 0.0020091317
-0.058361888 0.15620588 0.0020747895
-0.04331499 0.11192653 -0.017274005
-0.057531703 0.042740859 0.018099541
-0.056495555 0.041625619 0.018484252
-0.06020572 0.037548505 0.021794925
-0.060611535 0.037977479 0.019213522
-0.060391441 0.040645391 0.025044113
-0.060274243 0.041046578 0.025628041
-0.059765324 0.038277134 0.024146667
-0.061419584 0.042283837 0.027255531
-0.061850011 0.038067345 0.028010545
-0.062779434 0.039377738 0.027638286
-0.06208539 0.03984664 0.025266081
-0.063604288 0.039737508 0.032987565
-0.042121541 0.11232977 -0.016905369
-0.062317055 0.042689275 0.032686584
-0.062825434 0.038934372 0.032379627
-0.062867828 0.041438997 0.035768259
-0.036861267 0.12296497 -0.0081358049
-0.016822187 0.094866849 -0.031326994
0.027624251 0.11443035 -0.0077955206
0.021826513 0.11406743 -0.012500917
-0.070884176 0.15638673 -0.037767414
-0.073622197 0.15655625 -0.033044882
-0.075944848 0.15729535 -0.018449191
-0.07600674 0.15323441 -0.012391718
-0.073643617 0.15701203 -0.012031616
0.032710254 0.11242395 -0.002512811
-0.066792011 0.16800925 -0.054332811
-0.048900627 0.12915133 -0.0033101379
-0.075817078 0.17477451 -0.044846229
-0.083424322 0.13345048 -0.0019037329
-0.075939424 0.1631847 -0.030515408
-0.083270878 0.13314359 -0.0018758698
-0.066964708 0.1639874 -0.051660676
-0.074798591 0.15892392 -0.016263556
-0.084085718 0.12889703 -0.0022823692
-0.085071951 0.12746695 -0.0013679867
-0.059926912 0.086090535 -0.020026581
-0.092168093 0.12575218 0.032347098
-0.09186662 0.11899424 0.012129622
-0.079115026 0.11271332 -0.0041709878
-0.039660528 0.038813662 -0.025737407
-0.037594043 0.039376136 -0.027353251
-0.039040864 0.041049767 -0.024440164
-0.042451221 0.040095471 -0.022561675
-0.041283567 0.038992386 -0.022167362
-0.04022776 0.038779829 -0.022897713
-0.042399656 0.038908739 -0.021529865
-0.043808088 0.038056817 -0.019135792
-0.044297408 0.037619099 -0.017172147
-0.043284532 0.039041389 -0.017577698
-0.042565029 0.039707407 -0.018636234
-0.043502577 0.038583752 -0.019379726
-0.04693554 0.046043064 -0.011587526
-0.044001542 0.037766229 -0.014782425
-0.048973158 0.038651962 -0.011739513
-0.047987815 0.040210065 -0.012315323
-0.048096947 0.038365826 -0.013384951
-0.0063717035 0.091485098 -0.034893353
0.021469697 0.096148059 -0.022006501
0.0048231371 0.11999798 -0.013601727
-0.087722622 0.10194758 0.017443322
-0.08743567 0.10499089 0.016065232
-0.088199727 0.10339743 0.016426161
-0.064985134 0.038764562 -0.0026984992
-0.066154107 0.039221689 -0.0019118092
-0.065183349 0.043019194 0.00041071826
-0.061351385 0.045303326 -0.00060593244
-0.065729387 0.038861886 0.0012323798
-0.067458101 0.040694095 0.0021382556
-0.068563677 0.041514453 0.0014512964
-0.068769105 0.03997568 0.0049202633
-0.067812517 0.040133573 0.004318276
-0.068341814 0.039739918 0.0046286853
-0.067713886 0.041722309 0.0061378214
-0.087142728 0.13457029 0.0036692517
-0.086148165 0.12823474 0.00031104177
-0.089543156 0.12732626 0.0047655194
-0.07499022 0.15353633 -0.021375665
-0.072955549 0.15099563 -0.02483283
-0.075167224 0.15565722 -0.025277181
-0.074253455 0.15448807 -0.027907049
-0.0748206 0.15551755 -0.027982196
-0.072042093 0.15168916 -0.025719846
-0.072932467 0.15139493 -0.028744316
-0.090438768 0.12873517 0.0076857479
-0.059137959 0.042665441 0.01624346
-0.055870298 0.039284877 0.02114738
-0.057995573 0.043127105 0.018671731
-0.059908658 0.039019454 0.01965622
-0.060730856 0.038725287 0.023767395
-0.056946844 0.042885415 0.021841101
-0.060655709 0.03949704 0.023142682
-0.059322439 0.043334104 0.026387738
-0.060108874 0.040750869 0.023708159
-0.061119497 0.038215116 0.028222481
-0.062360674 0.03894195 0.026134187
-0.062105231 0.042697635 0.029445264
-0.062148463 0.040680297 0.030352784
-0.06225634 0.038783595 0.032757558
-0.062834322 0.043868646 0.032829992
-0.063222751 0.041114602 0.033884037
-0.062607527 0.044192243 0.033422604
-0.064471327 0.040669434 0.033660326
-0.064030096 0.04093786 0.036065821
-0.089422099 0.13003427 0.041454345
-0.090594396 0.13068242 0.0091216192
-0.088469021 0.13298051 0.0056087058
-0.079548612 0.14821963 -0.00079439371
-0.075478375 0.15762502 -0.027014047
-0.075736791 0.1552806 -0.011266037
-0.075717404 0.15208335 -0.014483997
-0.091125354 0.12991528 0.010216234
-0.067780502 0.16947304 -0.049317531
-0.065723732 0.16607954 -0.056514036
-0.089272231 0.1307078 0.005874679
-0.031302113 0.17463022 -0.011031345
-0.054180741 0.16039532 -0.0012056154
-0.091399074 0.13164154 0.013116103
-0.090539679 0.14130236 0.016950451
-0.04525255 0.16836138 -0.0038803245
-0.091199592 0.13243638 0.011615932
-0.06566602 0.17112547 -0.055483121
-0.091547705 0.12834857 0.032188501
-0.089577802 0.11448424 0.0097784856
-0.08137504 0.11207975 -0.0022563704
-0.038244165 0.038610939 -0.025742751
-0.037919633 0.044046976 -0.02397039
-0.039177369 0.038053989 -0.02325529
-0.040451162 0.039303377 -0.02328914
-0.040115494 0.041224129 -0.022036618
-0.042197958 0.039573964 -0.022598647
-0.042236365 0.041745376 -0.020028114
-0.0436888 0.041070677 -0.017702173
-0.042378739 0.04146314 -0.018996464
-0.041517101 0.043238007 -0.018651785
-0.042611897 0.040689699 -0.019998509
-0.045187891 0.039804868 -0.013983409
-0.045647893 0.041787542 -0.014962717
-0.044858724 0.042973023 -0.014440525
-0.042217188 0.04509607 -0.014587063
-0.04694175 0.042059809 -0.012765397
-0.04929357 0.037435517 -0.011447182
0.025574649 0.090518028 -0.021659376
-0.028408151 0.099321522 -0.023677323
-0.068254732 0.17319769 -0.051009782
-0.087344274 0.10563095 0.0090911388
-0.084059641 0.10024349 -0.00089423318
-0.085414045 0.10191806 0.0021176594
-0.058261976 0.044613991 -0.0051206602
-0.064393751 0.041661438 -8.1748178e-05
-0.063846514 0.043997075 -0.0011148585
-0.063869163 0.042956289 -0.0019440225
-0.064925939 0.03854927 -0.0030370515
-0.065784611 0.041406661 0.00042252376
-0.063787855 0.045483392 0.002728255
-0.063650675 0.044920336 0.0023805012
-0.067449696 0.039600547 0.006990457
-0.065354101 0.044158489 0.0058469549
-0.067492835 0.042926654 0.0050110701
-0.091144159 0.13186906 0.011533719
-0.092405528 0.12920536 0.016914865
-0.090975858 0.13141847 0.010481264
-0.092139922 0.13095304 0.013915967
-0.073521502 0.15352866 -0.010507185
-0.074731901 0.15415314 -0.011199508
-0.075239196 0.15274799 -0.010274299
-0.076171316 0.15204307 -0.0086616874
-0.076364279 0.15243392 -0.010448063
-0.092546187 0.12923695 0.017798079
-0.056931715 0.043848976 0.020104738
-0.054231286 0.047026489 0.02011005
-0.055227503 0.046614476 0.017299537
-0.053801157 0.04532804 0.019962372
-0.055979736 0.045122936 0.020103741
-0.057080347 0.042677946 0.021142462
-0.057905726 0.041904036 0.021443654
-0.05831971 0.040559359 0.022373684
-0.056323551 0.040995643 0.023430541
-0.057403807 0.043246631 0.026077567
-0.058470719 0.042736318 0.023699172
-0.06192157 0.040709913 0.030605974
-0.05911696 0.042937785 0.024034316
-0.061867248 0.040081885 0.028907109
-0.062021539 0.043821961 0.035380706
-0.062733158 0.042673212 0.033171579
-0.059230153 0.044355281 0.033735275
-0.060834285 0.043856677 0.03743216
-0.06192318 0.043652698 0.036054078
-0.06271521 0.040466659 0.032905191
-0.062207162 0.04351915 0.036717191
-0.061783291 0.03941834 0.039316323
-0.092827275 0.12909295 0.017654184
-0.070816599 0.15259215 -0.032443564
-0.076210171 0.15400486 -0.0075152386
-0.048097443 0.16576268 -0.00062098791
-0.092170954 0.1305047 0.020494038
-0.07292559 0.16702628 -0.039350528
-0.06542515 0.16588709 -0.054259725
-0.091866381 0.13202478 0.020265579
-0.090155318 0.13952808 0.029410966
-0.091294549 0.13566093 0.024714293
-0.07480102 0.15766674 -0.031455647
-0.092843041 0.1276035 0.022820877
-0.092123203 0.13161339 0.020814238
-0.015222173 0.12168385 -0.0096119707
-0.092149198 0.13181394 0.019419963
-0.013840985 0.1792319 -0.024463328
-0.092273422 0.12306345 0.034011547
-0.090344213 0.11550578 0.010702958
-0.037630998 0.041656405 -0.026153944
-0.036003325 0.041424561 -0.026247565
-0.041119281 0.040356673 -0.021693731
-0.038160078 0.040096402 -0.024791352
-0.036077045 0.044509053 -0.024407707
-0.040028334 0.043214791 -0.021650925
-0.041696712 0.04224797 -0.020539703
-0.042009886 0.04320306 -0.018377112
-0.040971611 0.041688766 -0.021578345
-0.041452516 0.045178663 -0.017024757
-0.044355661 0.042279456 -0.016788369
-0.043983337 0.044524923 -0.013901037
-0.040927686 0.045899726 -0.015473412
-0.044946585 0.042571437 -0.014457372
-0.042242311 0.041149698 -0.014690459
-0.045127928 0.046089258 -0.011954065
-0.031684496 0.11473186 -0.015347917
-0.062743597 0.09570916 -0.018321985
-0.032500602 0.094632939 -0.02444079
0.040920034 0.10254578 0.0025766771
-0.088255703 0.10189292 0.0146291
-0.085007161 0.10424534 0.0028825407
-0.057167515 0.042623777 -0.0060271365
-0.059335608 0.04368386 -0.0044141435
-0.06113442 0.045852825 -0.00069006631
-0.063462138 0.044089615 -0.0016657538
-0.061891463 0.039795734 -0.0017418487
-0.06452243 0.042335063 -0.0017644464
-0.06204541 0.045698248 0.00056244968
-0.063556246 0.045415387 0.0036478254
-0.065080523 0.043953098 0.0020715331
-0.067342661 0.042336948 0.004390026
-0.064341865 0.043834426 0.0083575398
-0.062801816 0.045856073 0.0040179016
-0.064806446 0.044691995 0.0066801258
-0.065253034 0.043098155 0.0078123272
-0.061144151 0.045878906 0.0086676357
-0.092115059 0.13095547 0.020745547
-0.087971263 0.13920288 0.036802497
-0.092215665 0.13017422 0.021627966
-0.089449264 0.14657156 0.025154358
-0.089622408 0.14725731 0.01993471
-0.092372268 0.13084888 0.02090936
-0.058669854 0.040587742 0.017704042
-0.054518469 0.046484053 0.015874352
-0.05382878 0.049313929 0.016560795
-0.05536918 0.045808282 0.018255558
-0.053636443 0.04786706 0.018335629
-0.055317082 0.046102881 0.022256004
-0.056284152 0.042989485 0.019982534
-0.055208836 0.046546087 0.020665245
-0.052949708 0.048883781 0.021415818
-0.056604557 0.044719487 0.024457168
-0.060507659 0.040516034 0.027641766
-0.057964258 0.04524811 0.026958715
-0.060226168 0.044191513 0.030974297
-0.061368585 0.043118346 0.029035365
-0.060410634 0.043100867 0.030858546
-0.056395885 0.047089174 0.0314238
-0.060339097 0.04546592 0.031680245
-0.061594229 0.044539746 0.033717159
-0.061130647 0.044911619 0.032513436
-0.062504284 0.043175012 0.03464333
-0.062123574 0.043355953 0.036696482
-0.062224362 0.041445371 0.035512406
-0.062472973 0.043265752 0.03849937
-0.091795482 0.13003892 0.028263897
-0.044608451 0.16865188 -0.0041156835
-0.07495831 0.16171947 -0.034404874
-0.076813653 0.16870713 -0.036703058
-0.069471285 0.17410152 -0.052529912
-0.039732359 0.17250562 -0.0048762769
-0.087371178 0.14167738 0.03512869
-0.092513599 0.12916964 0.024342971
-0.075030752 0.15452509 -0.023763148
-0.070648648 0.15443963 -0.037081663
-0.091427907 0.13084194 0.029510872
-0.091816917 0.13079934 0.026937498
-0.091897026 0.12937012 0.0264522
-0.041636188 0.12717733 -0.002165339
-0.052265182 0.16021305 0.0011285605
-0.029903244 0.040305562 -0.026778288
-0.075337455 0.14954001 -0.01171548
-0.090674192 0.12700754 0.040334146
-0.091494776 0.12616679 0.039795775
-0.08977069 0.11491074 0.010026474
-0.089329012 0.11395327 0.0082662906
-0.035839345 0.044024747 -0.025196778
-0.037727915 0.044314727 -0.022655083
-0.037904631 0.044146758 -0.023273414
-0.040180918 0.043559529 -0.020495212
-0.040863495 0.044547647 -0.016592024
-0.039774287 0.04374788 -0.021189064
-0.039717663 0.04316612 -0.021126363
-0.039161824 0.046895761 -0.016586421
-0.043512471 0.044013675 -0.015531291
-0.044137891 0.042833697 -0.01539096
-0.043349072 0.047463335 -0.013558956
-0.041572377 0.045576148 -0.014720698
-0.042857997 0.04609292 -0.013471697
-0.046277862 0.048226178 -0.011553627
0.00068105169 0.12096215 -0.012645501
0.015330594 0.11330748 -0.01542819
-0.074489824 0.15844493 -0.031537849
0.0031503034 0.11833233 -0.015353861
-0.036251374 0.046161674 -0.021578185
-0.05831439 0.044727027 -0.0054881885
-0.056650776 0.04473896 -0.0057153879
-0.057343721 0.048772763 -0.0030018073
-0.055882838 0.049977548 -0.0027329712
-0.060657896 0.041969348 -0.0041139578
-0.056608714 0.049109872 -0.0024351531
-0.057620712 0.052847255 0.0016116642
-0.059591353 0.048113961 0.00085768593
-0.060631201 0.048348539 0.0035051438
-0.061148904 0.047505021 0.0023927686
-0.058697991 0.05134473 0.0077757719
-0.063478522 0.045756247 0.0035065466
-0.059695873 0.049124505 0.004081435
-0.058220401 0.049152087 0.0062579871
-0.091080695 0.13379472 0.027655726
-0.091755398 0.12858984 0.030735718
-0.07357204 0.15022792 -0.024139708
-0.072162732 0.14963387 -0.024375221
-0.073338926 0.14854163 -0.01810341
-0.071063809 0.14959244 -0.018211601
-0.070291951 0.14740558 -0.016614163
-0.091202721 0.12791282 0.035779145
-0.090916216 0.13217321 0.031890944
-0.053730976 0.047114961 0.017823124
-0.052496564 0.048339076 0.017524941
-0.052723069 0.049490403 0.019092461
-0.054171529 0.047283802 0.018634189
-0.05186582 0.050878234 0.027369533
-0.05409462 0.048012786 0.023880947
-0.056186132 0.045753252 0.024017315
-0.054837864 0.047592349 0.023030251
-0.056078762 0.043612115 0.023186632
-0.054416355 0.049000159 0.026057556
-0.054994911 0.04728039 0.02422973
-0.059229396 0.04811636 0.026221842
-0.058156487 0.045314431 0.027572732
-0.058585014 0.046167124 0.035553321
-0.057265952 0.047857307 0.031736314
-0.062357079 0.042955987 0.033098537
-0.058009043 0.047032181 0.031724598
-0.06103009 0.044280928 0.034995977
-0.06056232 0.04452049 0.035639141
-0.059312984 0.043844394 0.039534245
-0.058638711 0.043842077 0.040072042
-0.090918101 0.13142712 0.033066653
-0.067981988 0.15924819 -0.045704208
-0.073131964 0.16824111 -0.039191805
-0.073818043 0.17490004 -0.047390692
-0.077455178 0.16884066 -0.03588596
-0.069640107 0.17393377 -0.050650593
-0.037524693 0.17147107 -0.0030589795
-0.065435685 0.16642132 -0.055168979
-0.053119592 0.16138348 0.0026921483
-0.072758861 0.15925211 -0.039248701
-0.056290954 0.1543449 0.00063261145
-0.090236977 0.13291959 0.035856295
-0.090932876 0.1303601 0.034302536
-0.066731632 0.16419055 -0.052999608
-0.048989158 0.16341853 0.00054627162
-0.051003523 0.16198227 0.0021512504
-0.042433552 0.11543695 -0.015301618
-0.083970517 0.13323094 -0.0012732274
-0.07546965 0.168733 -0.041052032
-0.088742785 0.11648384 0.0057935463
-0.081165835 0.11076169 -0.0023259143
-0.086406961 0.10030115 0.0040057856
-0.035657994 0.045463737 -0.023292268
-0.038268752 0.043886099 -0.021178309
-0.039682541 0.045339487 -0.019123103
-0.037119303 0.045538235 -0.020375574
-0.040994216 0.043664601 -0.019334853
-0.03943466 0.04778802 -0.015502339
-0.0403946 0.048523821 -0.015097899
-0.043381602 0.04338425 -0.013641389
-0.040622123 0.045187656 -0.014891439
-0.044341888 0.047019202 -0.013086434
-0.042418182 0.046419069 -0.014541483
-0.046708889 0.047624424 -0.01077397
-0.035273772 0.097993061 -0.022781549
-0.087757364 0.14994158 0.022141648
0.016190406 0.11146463 -0.016303794
-0.037274189 0.12318371 -0.0074118562
-0.05224593 0.051455833 -0.0067183487
-0.054979347 0.049328808 -0.0046913107
-0.056394868 0.051077798 -0.0032979553
-0.0549834 0.04805937 -0.0039701522
-0.058535226 0.04799575 -0.0014041426
-0.057817053 0.050433561 -1.68732e-05
-0.056764845 0.04922602 -0.0025876826
-0.057235952 0.050179239 0.0043691769
-0.058238078 0.049015928 0.00075643207
-0.059558224 0.0479513 0.00050099299
-0.059348147 0.049956039 0.0016989843
-0.060186073 0.048228346 0.0015313955
-0.057644986 0.051903721 0.005938299
-0.057529226 0.049974747 0.0085542705
-0.091514044 0.12865435 0.033096369
-0.090032265 0.13309625 0.037295569
-0.090885811 0.12874496 0.0379747
-0.054837845 0.056685928 0.020127382
-0.076044209 0.15344873 -0.0019086578
-0.076293409 0.15650104 -0.014140796
-0.089398935 0.14467388 0.025679056
-0.076414414 0.15196486 -0.0055842889
-0.085997507 0.15025745 0.011360771
-0.052752744 0.049243495 0.017819084
-0.053101573 0.051341821 0.01628183
-0.053603668 0.046925541 0.018744502
-0.051163957 0.051255561 0.021921843
-0.053667616 0.048311196 0.019870436
-0.053886618 0.048410881 0.022940332
-0.054412734 0.047979672 0.021684252
-0.054294199 0.04509047 0.022704056
-0.052117426 0.051817402 0.025967207
-0.054367498 0.048851188 0.023063185
-0.055381119 0.049023755 0.028363241
-0.054272629 0.047664817 0.02287711
-0.053447656 0.048903976 0.032042753
-0.057603758 0.046376139 0.032467503
-0.054176673 0.050872233 0.031633589
-0.05575864 0.048177831 0.028866434
-0.055044211 0.048952293 0.029414061
-0.060561281 0.044425134 0.03562
-0.054831155 0.048538353 0.034110069
-0.057183154 0.047519926 0.035171989
-0.070973828 0.14661898 -0.017371662
-0.085535675 0.14253905 0.0053491206
-0.037940066 0.17138033 -0.0082163988
-0.08797691 0.13740987 0.0072260471
-0.075353719 0.16758958 -0.034729943
-0.071058169 0.17153828 -0.048087224
-0.07284303 0.17499395 -0.047076207
-0.072570741 0.16509533 -0.039364189
0.052925099 0.061861068 -0.0001078675
-0.066914029 0.1580559 -0.047712825
0.047830574 0.063166812 -0.0019207656
-0.055591285 0.15775892 0.00063209602
-0.074657857 0.15621646 -0.027510233
-0.068789259 0.16371568 -0.049760025
-0.017906262 0.12045847 -0.010581778
0.027509924 0.090605654 -0.020504203
-0.076599151 0.15877935 -0.014817503
-0.014644414 0.11427021 -0.017053647
-0.087993637 0.13470981 0.0056593497
-0.027649852 0.17782253 -0.012244334
-0.089451171 0.11639979 0.0081271846
-0.084441394 0.11021627 0.002502579
-0.032454699 0.044095121 -0.025052736
-0.034474455 0.048724603 -0.020700347
-0.038806714 0.046099693 -0.018875504
-0.038515065 0.046345275 -0.019233033
-0.037676632 0.046716828 -0.017037056
-0.039522815 0.047931895 -0.015154793
-0.03755274 0.046978973 -0.019165862
-0.071363829 0.15153852 -0.034446348
-0.077468038 0.15336323 0.0040969001
-0.074853308 0.15447597 -0.0078663267
-0.042544086 0.050327137 -0.012172489
-0.041557577 0.050484229 -0.012185385
-0.089839354 0.11328286 0.016606251
-0.016393621 0.10821778 -0.020935392
-0.0083334018 0.09384726 -0.032921854
0.013116596 0.11218779 -0.016986933
0.018825658 0.094535187 -0.02382764
-0.05687565 0.04605186 -0.0057139918
-0.054604385 0.045498528 -0.0068763881
-0.057517208 0.049100988 -0.0020342981
-0.060163822 0.045206852 -0.0032631969
-0.054678336 0.051719043 -0.003907992
-0.056026336 0.049071401 -0.0026351928
-0.057033405 0.051635586 0.00026708125
-0.057314083 0.05043678 0.0046887812
-0.057639197 0.049548406 -0.00034321225
-0.057890281 0.050931606 0.0015278987
-0.05787494 0.050029315 0.0020953219
-0.057929434 0.05075961 0.0059975665
-0.059235197 0.048547484 0.0057472168
-0.082805015 0.14529271 0.0024428586
-0.089841515 0.14444396 0.015148138
-0.090087153 0.14414775 0.017636128
-0.089263305 0.14471331 0.01393407
-0.090826668 0.14207239 0.017422572
-0.090620823 0.1449765 0.021678526
-0.090773627 0.14368913 0.019867247
-0.092695184 0.12899888 0.020407217
-0.053419821 0.050900724 0.017078983
-0.052629776 0.049254 0.019003592
-0.052678734 0.048732564 0.018979682
-0.05349353 0.050085768 0.015836954
-0.053773418 0.048283424 0.020636151
-0.052505247 0.050078094 0.018751862
-0.052009467 0.050690826 0.02091937
-0.052552443 0.049873404 0.022967268
-0.052158054 0.049765851 0.021386594
-0.052524082 0.052253425 0.026618741
-0.052410536 0.051416259 0.023765167
-0.054162115 0.047968894 0.025938556
-0.052576579 0.051433686 0.027944287
-0.05453207 0.049875706 0.02867244
-0.055000681 0.048061505 0.031763677
-0.056082468 0.048971947 0.02986384
-0.052196931 0.050070263 0.034143187
-0.052933738 0.050090875 0.030620672
-0.058769383 0.04563541 0.036534119
-0.050726797 0.051234104 0.034551129
-0.050889846 0.049301811 0.03735071
-0.069337294 0.15046443 -0.027131168
-0.074178793 0.16099317 -0.03105926
-0.087621152 0.13537101 0.0054117944
-0.072756112 0.16839847 -0.040847808
-0.073322557 0.17238714 -0.046515469
-0.077677518 0.16725466 -0.03225176
-0.075688362 0.16660881 -0.028440379
-0.073277429 0.16776069 -0.042237394
-0.068041131 0.15728545 -0.048267704
-0.068443142 0.15631554 -0.047723189
-0.068046845 0.15560572 -0.041352239
-0.072140343 0.15579616 -0.033599336
-0.074111886 0.16757961 -0.037136041
-0.021302758 0.12015079 -0.010218339
0.019086689 0.089422531 -0.025559468
0.017470762 0.10677334 -0.01846992
-0.072580054 0.16193287 -0.017965317
0.047487967 0.070661724 0.003247377
0.0313241 0.10030687 -0.014366932
0.02709844 0.1028839 -0.015872484
-0.035835538 0.12138133 -0.0096566956
-0.03017622 0.048360929 -0.025536014
-0.03499043 0.048779424 -0.019413391
-0.033021685 0.047234789 -0.02324396
-0.034544576 0.0476062 -0.020492442
-0.033427659 0.048626792 -0.021374434
-0.037725378 0.049452834 -0.015291483
-0.03533328 0.049184881 -0.018467285
-0.035092089 0.051954444 -0.015169994
-0.037234887 0.047233991 -0.015524668
-0.034587916 0.050314806 -0.017001055
-0.037077162 0.048085853 -0.015618042
-0.037419859 0.050483275 -0.013824381
0.021043174 0.094420582 -0.02291673
-0.040798318 0.048713174 -0.012047696
-0.08895199 0.12658143 0.0037683847
0.022448827 0.086048596 -0.024755785
-0.01251543 0.10988332 -0.020306582
-0.016314778 0.11390626 -0.017088741
-0.053296924 0.048692904 -0.0062866728
-0.051813111 0.051807377 -0.0069796727
-0.054670945 0.053790383 -0.0045607509
-0.0555184 0.051901713 -0.0029620524
-0.055000011 0.053033851 -0.0041202763
-0.057401165 0.05147953 -0.00052491872
-0.057303399 0.054411177 -0.00061341876
-0.057109192 0.050293136 -0.0027846082
-0.056539599 0.052656747 0.0020226554
-0.057716593 0.052982789 0.0040607583
-0.057174116 0.052096866 0.0034906045
-0.058703396 0.049482062 0.0015831796
-0.05634306 0.053566266 0.0041000298
-0.057458293 0.049961377 0.0033210153
-0.07195849 0.15243676 -0.030777698
-0.074722081 0.15400876 -0.0016038333
-0.09047699 0.14235939 0.022542447
-0.090431646 0.14286013 0.016802682
-0.090039112 0.14444491 0.020094134
-0.089813739 0.14313096 0.014307283
-0.090314522 0.1401809 0.015981326
-0.06987872 0.15828495 -0.043148946
-0.053130757 0.050139885 0.016227797
-0.053420208 0.050655924 0.016052673
-0.052447062 0.052253954 0.017634939
-0.052238848 0.051134337 0.019427933
-0.053095974 0.052895371 0.017971927
-0.05287949 0.049585134 0.022684431
-0.05220972 0.050293252 0.020663554
-0.05228173 0.050161887 0.0199869
-0.052566502 0.051625088 0.022419842
-0.052830044 0.051074337 0.024248749
-0.052092902 0.050315473 0.026277365
-0.052529454 0.053838782 0.025545312
-0.052618615 0.049536943 0.023425505
-0.051926266 0.056332931 0.029681437
-0.052837074 0.050782073 0.028517632
-0.051416274 0.052546743 0.030180622
-0.051298879 0.054267008 0.031272419
-0.077083692 0.14756759 -0.002809285
-0.075227313 0.15127061 -0.012175227
-0.075385086 0.1512838 -0.010435102
-0.079319768 0.13815138 -0.0033260575
-0.077359051 0.14003277 -0.0048595383
-0.07596121 0.16770646 -0.033034097
-0.040443908 0.17125961 -0.0069796736
-0.07626278 0.16926758 -0.035783648
-0.091730922 0.12350748 0.032261301
-0.048394598 0.16396241 -0.0010654292
-0.077338152 0.16508061 -0.029172095
-0.071009226 0.16435979 -0.04391608
0.030559983 0.10647331 -0.011372414
-0.048703883 0.16175269 -0.00014941908
-0.069426902 0.11945314 -0.0085426196
-0.076376848 0.1637916 -0.027987769
-0.076861329 0.16674015 -0.032720674
-0.085059784 0.10899654 0.0029624577
-0.042700898 0.098521672 -0.021932403
-0.026773807 0.12259561 -0.0058125928
0.021247417 0.11281955 -0.013157122
0.0061336057 0.1243761 -0.0083383918
-0.030589659 0.1069136 -0.020411657
0.034138571 0.1014722 -0.010933176
0.03471994 0.099549532 -0.011530197
-0.078259595 0.070352465 0.011136265
-0.030088376 0.051419385 -0.022634739
-0.029232141 0.051311612 -0.023661213
-0.031427898 0.049270332 -0.022043072
-0.032839216 0.049792659 -0.021111952
-0.030894293 0.051230181 -0.02143077
-0.033431638 0.050175361 -0.018759502
-0.032518931 0.05148847 -0.017772933
-0.031345833 0.052179243 -0.019256115
-0.034367606 0.052184872 -0.016343463
-0.032902621 0.052396554 -0.015135481
-0.036193304 0.051598981 -0.014718417
-0.03560872 0.051837273 -0.014453858
0.027851602 0.10258904 -0.015569407
0.0030288531 0.1212946 -0.012287768
0.049027044 0.070304103 0.0039096419
0.032858189 0.1108743 -0.0042062313
-0.012367994 0.10968392 -0.020388087
-0.053223647 0.05230606 -0.0065069492
-0.053715289 0.057781547 -0.0063706394
-0.054215889 0.051337965 -0.0049823071
-0.055170059 0.051543478 -0.0044150404
-0.057026856 0.052525513 0.0020425289
-0.056245334 0.05299554 0.001394572
-0.056941461 0.053338639 0.0033611457
-0.056655221 0.054136399 -0.00073559443
-0.056692038 0.053604878 0.00065261667
-0.057318125 0.052161735 0.0022936177
-0.057548437 0.054087408 0.0043116468
-0.05673543 0.052988596 0.0029908419
-0.057200894 0.055002768 0.0040737395
-0.057626311 0.053805679 0.0058353469
-0.056584302 0.051340003 0.0060035731
0.031084232 0.10626592 -0.010910112
-0.048503362 0.1121747 -0.016711107
-0.072570302 0.070774689 0.029825559
-0.070277788 0.14185838 -0.0088399658
-0.070528522 0.14131278 -0.007956204
-0.071628429 0.14153188 -0.006775755
-0.036562108 0.12210422 -0.0091627799
-0.074093275 0.14757824 -0.012118447
-0.052466508 0.051742971 0.017440068
-0.053785838 0.04979676 0.015035076
-0.052997474 0.052498952 0.018255135
-0.052869342 0.051833387 0.021708386
-0.052230898 0.051261466 0.020281935
-0.052342873 0.051172104 0.024861166
-0.052656554 0.052453727 0.022312542
-0.052682612 0.050545339 0.024282916
-0.052165277 0.052546602 0.021669274
-0.052399952 0.051591471 0.026653349
-0.053301621 0.051659476 0.027492967
-0.052114796 0.053147312 0.027665041
-0.051279463 0.052801095 0.029479701
-0.05202397 0.052470088 0.027248779
-0.049217623 0.054625008 0.034383327
-0.018752228 0.095434055 -0.030143259
-0.0078354627 0.096919492 -0.029447092
0.029355576 0.11155767 -0.0088180276
-0.003020576 0.12699135 -0.0045267614
-0.083181255 0.13944359 0.00062475866
-0.075240895 0.15731607 -0.027199062
-0.073296428 0.15729091 -0.034093119
-0.072743148 0.15809557 -0.036947824
-0.064136639 0.17397688 -0.058846388
-0.084269769 0.10958073 0.028188137
-0.05916971 0.1100501 -0.015980424
-0.073900789 0.17249314 -0.046170037
-0.085109577 0.13303237 0.00026821953
-0.0733044 0.16770579 -0.040878583
-0.065334104 0.17060423 -0.056883536
-0.069093287 0.1618557 -0.04336286
-0.032828752 0.17327027 -0.0096349511
-0.070513509 0.15315747 -0.040723804
0.026765736 0.11157994 -0.010798118
0.011820447 0.10775194 -0.019161807
-0.031474005 0.11062381 -0.018331852
-0.032955691 0.10887175 -0.019398913
-0.030309679 0.1092585 -0.019346775
0.023290046 0.12004159 -0.0045312783
-0.027650815 0.05055812 -0.023457354
-0.028232314 0.050979201 -0.024645412
-0.029265815 0.052596834 -0.021242315
-0.029461106 0.050581228 -0.024155879
-0.031696204 0.051130779 -0.021272002
-0.031395938 0.051597398 -0.01941622
-0.032282658 0.053299859 -0.016585946
-0.03199384 0.052202757 -0.016824953
-0.030186266 0.053490069 -0.019354515
-0.032952212 0.053764448 -0.016336687
-0.033106025 0.052639622 -0.016689453
-0.034009121 0.055155281 -0.013871762
-0.034596585 0.048872609 -0.015414631
-0.090607978 0.126103 0.0069455402
0.010781701 0.1246896 -0.0067391749
0.035294514 0.096133634 -0.012592921
-0.058026731 0.11751012 -0.012129559
-0.0087764217 0.109919 -0.020713242
-0.051939305 0.052937042 -0.0069635557
-0.048862156 0.047330659 -0.010226399
-0.055253878 0.052837487 -0.0033804211
-0.051344089 0.053577248 -0.0073135588
-0.05498118 0.054016232 -0.002364957
-0.055096276 0.055010892 -0.0030667891
-0.0570313 0.054033969 0.0010463962
-0.058040407 0.05028294 0.0014747347
-0.057359755 0.054450314 0.0038169916
-0.057219125 0.051157746 -0.00056219898
-0.057270698 0.055118605 0.0060135429
-0.056172356 0.053208299 0.0026360885
-0.058337387 0.051897883 0.005650294
-0.058244746 0.054582182 0.0054778769
-0.055227723 0.052567929 0.0091838548
-0.054823022 0.053085297 0.010617254
-0.072227277 0.14214531 -0.0079556275
-0.085164063 0.13141227 -0.00021869305
-0.089738391 0.14083609 0.030045621
-0.030844849 0.17508511 -0.010585743
-0.08677797 0.13238372 0.00212772
-0.088664815 0.14230631 0.010245526
-0.070457116 0.15316874 -0.039572489
-0.052074678 0.051603731 0.016505904
-0.05252986 0.051748391 0.021895636
-0.052415334 0.051876377 0.019266646
-0.051853292 0.05267125 0.019740419
-0.051920958 0.05173102 0.021673333
-0.052709099 0.052282847 0.022329813
-0.053171515 0.051560473 0.019987512
-0.051525995 0.054150328 0.023774151
-0.051892508 0.054592073 0.025727946
-0.053096384 0.054436002 0.026301933
-0.053093016 0.055188641 0.026999367
-0.052402973 0.050539106 0.022716762
-0.051666956 0.05563283 0.02785375
-0.052571479 0.052776076 0.028470302
-0.051571064 0.056083839 0.031852052
-0.09041544 0.14458071 0.016236838
-0.085541151 0.14693815 0.0077783926
-0.079064809 0.15098791 0.0024748496
-0.074784428 0.15652621 -0.012230815
-0.069465466 0.15573263 -0.043573979
-0.068101183 0.15660116 -0.043988556
-0.071022876 0.15599976 -0.040738255
-0.069563046 0.15500979 -0.037425648
-0.045961 0.11711247 -0.01474368
-0.033093028 0.1717712 -0.010208137
-0.037068669 0.17214356 -0.0087748021
-0.073294409 0.17425364 -0.050779678
-0.066334836 0.16798708 -0.0516892
-0.070884243 0.16930157 -0.041182097
-0.066403605 0.16890967 -0.054341372
-0.069621868 0.16539918 -0.042474307
-0.034659918 0.17503656 -0.0094723664
-0.067056112 0.16572224 -0.047286637
-0.025428677 0.17500956 -0.014073241
-0.067504793 0.17832613 -0.056155503
0.020329993 0.1129994 -0.013724535
0.022931429 0.11550537 -0.010853699
0.023476183 0.11933756 -0.0051938049
-0.034488261 0.10970256 -0.018504864
0.046260484 0.066997267 -0.0015595061
-0.026946228 0.052819498 -0.026011825
-0.027272634 0.049660679 -0.025035623
-0.028214393 0.052138053 -0.024452563
-0.029560646 0.051129229 -0.022429848
-0.030371666 0.053463705 -0.019748926
-0.029854186 0.05141953 -0.022279931
-0.031151585 0.051839102 -0.019102974
-0.029856147 0.055067379 -0.020822588
-0.032785911 0.05009013 -0.019544251
-0.03276059 0.054962818 -0.016618589
-0.032034941 0.055575918 -0.016376443
-0.033058908 0.056482904 -0.015950773
-0.03155176 0.052045207 -0.01839084
-0.034500469 0.052384809 -0.014414862
-0.033680066 0.05351593 -0.015335636
-0.091719449 0.12701526 0.010037044
0.02172382 0.11994574 -0.0060641249
0.037587371 0.094778381 -0.010351689
-0.049861748 0.12479452 -0.0080259219
-0.010886673 0.110021 -0.020237723
-0.052706685 0.053844906 -0.0068044001
-0.054724015 0.054333102 -0.0039187954
-0.055351507 0.055803817 -0.0046689501
-0.056237675 0.053862039 -0.0018602815
-0.05568726 0.051938005 -0.0022200982
-0.057895925 0.054563135 -0.00056257966
-0.056550775 0.055552565 -0.0017997024
-0.055399332 0.053595971 -0.0011454484
-0.058231175 0.055454511 0.004071292
-0.057065375 0.054179646 0.0028625769
-0.057244174 0.052905723 0.0014400971
-0.055988844 0.054805651 0.0048879804
-0.056679219 0.052444018 0.0063173929
-0.057018876 0.053810343 0.0058171712
-0.055780381 0.054344565 0.009615642
-0.056158036 0.054296661 0.011376968
