# .PCD v0.7 - Point Cloud Data file format
VERSION 0.7
FIELDS x y z intensity
SIZE 4 4 4 4
TYPE F F F F
COUNT 1 1 1 1
WIDTH 122
HEIGHT 1
VIEWPOINT 0 0 0 1 0 0 0
POINTS 122
DATA ascii
-0.078187287 0.17883486 -0.049700141 0.012578785
-0.022521913 0.084805489 -0.048340321 0.00010406226
-0.0052191084 0.065587319 -0.035216343 0
-0.030860901 0.08158268 -0.033625126 0.00055927411
-0.015302358 0.075157888 -0.038564425 0
0.0094704628 0.090424776 -0.031450033 0.00027140975
-0.073439911 0.14989164 -0.03899695 0.028786585
-0.074390292 0.17247576 -0.049512923 0.011064343
-0.036157563 0.03695057 -0.030061305 0.0064824969
-0.016104184 0.035316866 -0.023820192 0.026788123
-0.0054931641 0.11621094 -0.076171875 0.0063660666
-0.022521913 0.084805489 -0.048340321 0.0009810701
0.023690075 0.05438444 -0.024257034 0.00039556623
0.027888298 0.074816227 -0.023265183 0.0023180619
-0.034670353 0.087489426 -0.024943799 0.0017360449
0.0030734837 0.11632042 -0.018169023 0.002940692
-0.052117467 0.10180302 -0.021070391 0.00014226884
0.0030140728 0.11595823 -0.018518902 8.417666e-05
-0.023509979 -0.0085906982 -0.027193069 0.0046435073
-0.034940828 0.036413174 -0.015457013 0
-0.045738101 0.050596118 -0.010181308 0.00072861463
-0.069522321 0.08023572 -0.017188609 0.00070410967
-0.036718108 0.072873317 -0.017422732 0.00084642321
0.040808201 0.088007316 -0.011002183 0.00049700588
0.026764989 0.097773731 -0.019761145 9.1210008e-05
-0.059202194 0.11164063 -0.015703201 5.4974109e-05
-0.032210588 0.10738049 -0.020355944 9.7937882e-05
-0.043351024 0.12182888 -0.012185514 0.00056321919
-0.125 0.125 -0.875 0.012570098
0.14117622 0.15366706 1.9519094 0.0076330304
-0.035491943 0.19938159 -0.0052652359 0.0020330064
-0.07192415 0.037695169 -0.0020482317 0.023287117
-0.033869032 0.038188495 -0.0053365896 7.4505806e-09
-1.7382736 0.26803589 6.4638672 7.4505806e-09
-0.014818892 0.038663927 -0.0050118011 0
-0.0048037167 0.038963642 -0.0051334943 0
0.0051445197 0.037197415 -0.0052030119 0
0.020049334 0.036987543 -0.0074902773 0.00063187629
0.033118792 0.049645137 -0.0080382843 0.0037076026
0.053829797 0.057361756 -0.0033693537 0.0041989125
0.039588213 0.062506258 -0.0081986487 0.0019529946
-0.082153946 0.077376008 -0.0020533204 0.0007712543
-0.080485106 0.098054327 -0.0088894963 0.00077230111
0.042171717 0.10033655 -0.0011521876 0.00029708073
-0.0756073 0.11300385 -0.0068252087 0.00036297739
-0.0045171827 0.12731417 -0.0059021972 0.0043730512
0.00016062707 0.12077731 -0.026491757 0.0025158934
-0.052502811 0.15724362 -0.0017948635 0.015750684
-0.018385708 0.15809008 -0.0084666908 0.0047048107
-0.040613163 0.17282929 -0.00060334802 0.0075613782
-0.055029761 0.033567369 0.0050746347 0
-2.3272421 0.017146852 -1.0973985 7.4505806e-09
-2.3272421 0.017146852 -1.0973985 7.4505806e-09
-1.7382736 0.26803589 6.4638672 7.4505806e-09
-2.042696 -0.067780957 -10.431995 7.4505806e-09
-0.0049854466 0.038228523 0.0051442748 0
0.0044663227 0.034761269 0.0044806236 0
-0.057073563 0.056049943 0.005020692 0.0057354942
-0.087637685 0.094926991 0.0050360402 0
-0.086459517 0.10781451 0.0052421093 0.00060183927
0.029149055 0.11970901 0.00096252561 0.00027356297
-0.088632345 0.12762892 0.00079452991 0.0007478334
-0.04878059 0.14050902 0.0050290301 0.024104558
-0.018385708 0.15809008 -0.0084666908 0.0073370375
-2.3272421 0.017146852 -1.0973985 7.4505806e-09
-0.625 0.0078125 -1.640625 0
0.125 0.125 0.21875 0.00024452806
-0.050028592 0.051237524 0.015143016 0.032339185
-0.07998459 0.07073693 0.015515874 0.0047012344
0.058080554 0.072079301 0.013538949 0.0093255267
-0.089428514 0.094955631 0.014924553 0
-0.0625 0 0.015625 0.00055105612
-0.087583981 0.10502452 0.014868543 0
-0.094072089 0.11689824 0.015042376 0.0047635622
-0.044231873 0.12806731 0.01559126 0.025085479
-0.034592006 0.03469035 0.02537901 7.4505806e-09
-1.0533664 0.039724 0.039117217 0
-0.0050567864 0.038618229 0.024895156 0
0.028954424 0.039531812 0.029461864 0.00077147037
0.050602674 0.05341357 0.030626073 0.0032490492
0.054875433 0.06491328 0.02765426 0.003423024
0 0 0.00390625 0.0046166889
-0.078683615 0.10528564 0.034141541 0.0030719824
0.041144252 0.10169435 0.023786992 0.00020429865
-0.028037012 0.12004848 0.028847665 0.00047915056
0.25 1 0 0.016536891
0.011288643 0.1304995 0.021472514 0.00059782341
-0.091638803 0.14906725 0.020393915 0.0045998953
0.13596745 -0.026089054 -0.17268085 7.4505806e-09
-0.0050604902 0.038971849 0.033993468 0
0.01540827 0.035992552 0.041909911 0.005033914
-0.067099519 0.038888432 0.039462626 0.024200827
-0.049104393 0.052965939 0.03582859 0.006218724
-0.028595621 0.072201818 0.040204555 0.0039617792
-0.078471243 0.083064258 0.036312103 0.00071241707
-0.078683615 0.10528564 0.034141541 0.0011793002
-0.062087327 0.11302185 0.038176 0.003342431
-0.045922354 0.11643513 0.033243515 0.0050975047
-0.0058642961 0.11929393 0.039086804 0.0062903017
0.022824049 0.12168181 0.029993013 0.0005934611
-0.055999659 0.15365036 0.030175999 0.0096501186
-0.045266725 0.035815991 0.043531358 0.0042626597
0.013671875 0.03125 0.025390625 0.0011204258
-0.027739331 0.057929128 0.037297651 0.0025551096
-0.045003355 0.072712228 0.041892435 0.0013805255
-0.06598556 0.084941924 0.044052988 0.00047641248
-0.044317842 -962.77338 0 0.0055373907
-0.0084282756 0.10719883 0.043733269 0.00049541146
0.03155005 0.093485028 0.042397201 0.00032997876
-0.045572728 0.11098045 0.037302673 0.0023773797
0.021542668 0.10268468 0.043696165 0.00020005554
-0.092821777 0.11695257 0.041263342 0.010345243
-0.029635847 0.038581092 0.053474516 0.01356452
-0.0049993042 0.064746939 0.05611942 0
-0.0049977195 0.074606664 0.057939414 0
0.0052312938 0.074839294 0.056264877 0
-0.023561716 0.086539954 0.054935843 0.0061308928
0.0050739087 0.085125297 0.056305155 0
0.019906044 0.079221606 0.051501989 0.00010912865
-0.26367188 0.0234375 0.20703125 0.00041484833
-0.069378532 0.11697465 0.052735254 0.0096656978
-0.080382749 0.13407329 0.051973119 0.00472527
